# .PCD v0.7 - Point Cloud Data file format
VERSION 0.7
FIELDS x y z intensity
SIZE 4 4 4 4
TYPE F F F F
COUNT 1 1 1 1
WIDTH 1409
HEIGHT 1
VIEWPOINT 0 0 0 1 0 0 0
POINTS 1409
DATA ascii
0.62925875 -5.1564708 0.48148757 0
0.62905186 -5.1538792 0.71067303 0
0.62906438 -5.1577454 0.9409647 0
0.62904942 -5.1608229 1.172761 0
0.62899119 -5.1626663 1.4064937 0
0.62866718 -5.156713 1.6413934 0
0.62876111 -5.1631269 1.8817842 0
0.62885433 -5.1695828 2.126451 0
0.64814723 -3.5963526 -0.062965065 0
0.72371131 -5.1596298 0.022546858 0
0.72336495 -5.155283 0.25236678 0
0.724051 -5.1722717 0.48178083 0
0.72321415 -5.1577754 0.7110917 0
0.72288567 -5.1537976 0.94100994 0
0.72320163 -5.1631703 1.1735439 0
0.72349572 -5.172133 1.408589 0
0.7232995 -5.1709657 1.6448731 0
0.72319394 -5.1717181 1.884647 0
0.72325575 -5.1759863 2.1292014 0
0.71977365 -3.5935597 -0.063029855 0
0.81853116 -5.1688914 0.02177012 0
0.81837583 -5.168859 0.25199944 0
0.81827211 -5.1696482 0.48187196 0
0.81755698 -5.1606913 0.7115351 0
0.81820321 -5.1734562 0.94311839 0
0.81737006 -5.1626301 1.1741533 0
0.81823623 -5.1789451 1.4104936 0
0.8167237 -5.1573153 1.6433353 0
0.81663299 -5.1584072 1.8828785 0
0.81762481 -5.1768618 2.1308632 0
0.79132807 -3.5892029 -0.063039243 0
0.91218615 -5.1574001 0.022120416 0
0.91256714 -5.1645536 0.25201416 0
0.91203529 -5.1598682 0.48189873 0
0.91304398 -5.1751714 0.71259761 0
0.91152531 -5.1576838 0.94242567 0
0.91202539 -5.1664133 1.1754389 0
0.91212821 -5.1700063 1.4101971 0
0.91141462 -5.1630168 1.6457248 0
0.91171604 -5.1692433 1.8868761 0
0.91150564 -5.1688604 2.1305532 0
1.0078012 -5.168654 0.021085083 0
1.0058689 -5.1496029 0.25224715 0
1.0080823 -5.1758413 0.48226649 0
1.0086308 -5.183898 0.71346086 0
1.0090268 -5.1903014 0.94584709 0
1.0071217 -5.1715479 1.1770525 0
1.0073316 -5.1759415 1.4124004 0
1.0065746 -5.1697807 1.6485832 0
1.0056963 -5.1623173 1.8871733 0
1.0056775 -5.1642914 2.1315076 0
0.93416446 -3.5766973 -0.06297493 0
1.1029875 -5.1704521 0.020523757 0
1.1033418 -5.1757402 0.25152233 0
1.1016209 -5.1614423 0.48228377 0
1.1020079 -5.1670413 0.71318239 0
1.1014919 -5.1641221 0.9445315 0
1.102051 -5.1713653 1.1782081 0
1.103839 -5.1902437 1.4161117 0
1.1021959 -5.1767206 1.6517451 0
1.1024524 -5.18118 1.8936288 0
1.1031334 -5.1896868 2.1407335 0
1.0045285 -3.5613527 -0.062229156 0
1.1977797 -5.1661506 0.020243406 0
1.2000701 -5.1870198 0.25111055 0
1.1981037 -5.1725574 0.48264062 0
1.1986755 -5.1791658 0.71435285 0
1.1969947 -5.1670723 0.9457444 0
1.1986382 -5.1826053 1.180886 0
1.1983743 -5.1823106 1.4166207 0
1.1967702 -5.1708946 1.6527495 0
1.1989548 -5.1910009 1.8983644 0
1.198168 -5.1864338 2.1427789 0
1.078004 -3.5704966 -0.063860893 0
1.2930764 -5.164072 0.019761652 0
1.2964523 -5.1908603 0.25084347 0
1.2937579 -5.1727028 0.48288637 0
1.2937109 -5.1741476 0.7147814 0
1.2952791 -5.1875725 0.94853806 0
1.2951794 -5.1886454 1.1831236 0
1.2919047 -5.1661954 1.4160823 0
1.2938896 -5.1827617 1.6573961 0
1.2941016 -5.1862102 1.9001058 0
1.2953978 -5.1977363 2.1490493 0
1.3919234 -5.1836424 0.017947078 0
1.3893129 -5.1679435 0.25116235 0
1.3904393 -5.1772084 0.48321122 0
1.3902254 -5.1775203 0.715684 0
1.3906525 -5.182127 0.94930249 0
1.3908648 -5.1853061 1.1844221 0
1.3913109 -5.1900668 1.4219483 0
1.3907762 -5.1882849 1.661113 0
1.3935622 -5.2087569 1.9084008 0
1.3921113 -5.2008953 2.1535487 0
1.2169445 -3.5298667 -0.061883748 0
1.4868239 -5.1732025 0.017803103 0
1.4908017 -5.19911 0.25022173 0
1.4894866 -5.1928067 0.48370034 0
1.488132 -5.1862602 0.7169193 0
1.489776 -5.1979809 0.95196712 0
1.4874691 -5.185648 1.1863327 0
1.4874178 -5.1870666 1.4238856 0
1.4879539 -5.1920862 1.6647812 0
1.4879152 -5.1936264 1.9084386 0
1.4872532 -5.1913934 2.1550663 0
1.2889745 -3.526063 -0.062577844 0
1.5867746 -5.1901345 0.015987307 0
1.5857543 -5.1861048 0.25026524 0
1.5834111 -5.1746802 0.48379236 0
1.5850406 -5.1854453 0.71777332 0
1.5850904 -5.1873946 0.95255232 0
1.5882638 -5.2068181 1.1909089 0
1.5842688 -5.1861782 1.4263775 0
1.5856649 -5.1957011 1.6686975 0
1.5853044 -5.195426 1.9126705 0
1.5852717 -5.19701 2.1609888 0
1.6839538 -5.1876202 0.015229315 0
1.6824963 -5.1817379 0.25008628 0
1.6823843 -5.1827927 0.48423934 0
1.6858547 -5.2023406 0.71955752 0
1.684404 -5.1964965 0.95491266 0
1.687022 -5.2116675 1.1937231 0
1.6849831 -5.2028079 1.4318333 0
1.682379 -5.1910429 1.6713071 0
1.6825315 -5.1935387 1.9163944 0
1.6843382 -5.2046142 2.167841 0
1.4285921 -3.4932828 -0.061867863 0
1.7811213 -5.1828012 0.014530003 0
1.7868385 -5.2118011 0.2490907 0
1.7834663 -5.1972589 0.48479366 0
1.7800354 -5.1824284 0.71964431 0
1.783893 -5.2025375 0.95714951 0
1.7843443 -5.2063336 1.1954987 0
1.7842891 -5.2077122 1.4357034 0
1.7804369 -5.1908941 1.6750702 0
1.786845 -5.2233281 1.9277551 0
1.784353 -5.2130837 2.1753333 0
1.4986085 -3.4782352 -0.061773211 0
1.8798546 -5.1829982 0.01345861 0
1.8849617 -5.2074127 0.24885978 0
1.8839689 -5.2045698 0.48528498 0
1.8819145 -5.1969767 0.72147596 0
1.8803809 -5.1917157 0.95809686 0
1.8791447 -5.1877913 1.1958619 0
1.883183 -5.2074838 1.4390103 0
1.8795038 -5.1926579 1.6794947 0
1.8796891 -5.1951475 1.9261063 0
1.8808264 -5.2019296 2.1779623 0
1.5681888 -3.4612889 -0.06158796 0
1.9822252 -5.1957383 0.011566997 0
1.9795564 -5.1861401 0.24899279 0
1.9812253 -5.1946998 0.48558408 0
1.9819527 -5.1993213 0.72279817 0
1.9848999 -5.2132535 0.96191418 0
1.9813793 -5.2000918 1.2001294 0
1.9819412 -5.2040534 1.4420538 0
1.9826416 -5.2086143 1.6869777 0
1.9823078 -5.208859 1.9344816 0
1.9838946 -5.2171893 2.1881099 0
2.0839906 -5.2018905 0.0099800825 0
2.0809541 -5.1914978 0.24848492 0
2.0815768 -5.195508 0.48604658 0
2.0837674 -5.2056971 0.72439986 0
2.0800462 -5.1926045 0.96229136 0
2.081852 -5.2012959 1.2032499 0
2.0858259 -5.2185512 1.4481741 0
2.0836349 -5.2115226 1.6922368 0
2.0833127 -5.2118869 1.9407498 0
2.0849991 -5.2201967 2.1953816 0
1.7063519 -3.423686 -0.061131358 0
2.1867731 -5.208405 0.0082868338 0
2.1830907 -5.1962824 0.2479625 0
2.1811092 -5.1904693 0.48646125 0
2.1858087 -5.2094769 0.72595942 0
2.1856983 -5.2106218 0.96609586 0
2.1875503 -5.2190719 1.208586 0
2.1891713 -5.2266822 1.4535511 0
2.1876063 -5.2224636 1.6993805 0
2.1847177 -5.2133412 1.9470195 0
2.1850615 -5.2162652 2.2011952 0
2.2910633 -5.2167621 0.0063970685 0
2.2871051 -5.2044044 0.24733406 0
2.2916503 -5.2219105 0.4873783 0
2.289444 -5.2157025 0.72772568 0
2.2904007 -5.2206125 0.96936506 0
2.2946992 -5.2372832 1.2141902 0
2.2904906 -5.2240601 1.4574791 0
2.2871675 -5.2139611 1.7030277 0
2.2872317 -5.2157969 1.9538972 0
2.2843423 -5.2072639 2.2060456 0
1.8448241 -3.3871865 -0.061139435 0
2.3945105 -5.2186699 0.0048041642 0
2.3889537 -5.2016964 0.24692908 0
2.3947642 -5.2225842 0.48792619 0
2.3912923 -5.2125516 0.72911608 0
2.3920553 -5.2166338 0.97158152 0
2.3944888 -5.226295 1.2164243 0
2.393115 -5.22328 1.4619581 0
2.3961813 -5.2350879 1.7128342 0
2.3983619 -5.2439666 1.9672159 0
2.3988492 -5.2472272 2.2247405 0
2.4065642 -4.9283476 0.020684302 0
2.411108 -4.9441915 0.25246418 0
2.4112864 -4.9462204 0.48485038 0
2.4077883 -4.9366083 0.71699965 0
2.4118624 -4.950983 0.9512828 0
2.407104 -4.9373851 1.1845104 0
2.411891 -4.9540453 1.4235221 0
2.40731 -4.9410357 1.6604342 0
2.4097948 -4.9504418 1.9048362 0
2.4105034 -4.9542398 2.1522605 0
2.4188089 -4.6634421 0.03508684 0
2.4228888 -4.677134 0.25823539 0
2.4168777 -4.6604061 0.48162928 0
2.4191871 -4.6687675 0.705235 0
2.4198155 -4.6720638 0.92974967 0
2.4205742 -4.6757631 1.1558461 0
2.4135661 -4.6560349 1.3802882 0
2.4179854 -4.6708112 1.6125605 0
2.4195118 -4.676877 1.8469366 0
2.4183674 -4.674902 2.0832508 0
2.4264178 -4.4067826 0.049042135 0
2.4288831 -4.4152064 0.26390177 0
2.4254556 -4.4066801 0.47881246 0
2.4333034 -4.4305921 0.69490516 0
2.4290099 -4.4195786 0.91042209 0
2.4274359 -4.4163961 1.1273363 0
2.4279604 -4.4192653 1.3467796 0
2.4297786 -4.4258757 1.5695394 0
2.4227457 -4.4070115 1.7896569 0
2.4271765 -4.4211903 2.0210469 0
2.1188116 -3.3029351 -0.061157078 0
2.4338932 -4.1698465 0.061853886 0
2.4368286 -4.1791911 0.2689729 0
2.4326124 -4.1688762 0.47618833 0
2.4365926 -4.1810956 0.68395054 0
2.4357457 -4.1800489 0.89213616 0
2.4364924 -4.1833949 1.1019889 0
2.4380555 -4.1889963 1.3141838 0
2.4326982 -4.1755695 1.5252373 0
2.4353762 -4.1842747 1.743403 0
2.4335551 -4.1806159 1.962219 0
2.4459429 -3.9626718 0.072899759 0
2.4431667 -3.9565969 0.27374154 0
2.4413409 -3.9530153 0.47384065 0
2.4450145 -3.9639101 0.67457557 0
2.4427238 -3.9591112 0.87539494 0
2.4411941 -3.9563208 1.0772594 0
2.4464536 -3.9714208 1.2835102 0
2.4444909 -3.967514 1.4892545 0
2.4438095 -3.9669995 1.6982524 0
2.4431252 -3.9664989 1.9105254 0
2.2493649 -3.2432051 -0.059973449 0
2.4521375 -3.7554436 0.083993912 0
2.450973 -3.7536864 0.27805698 0
2.4452133 -3.7403359 0.47151697 0
2.4503865 -3.7545619 0.66554737 0
2.4456353 -3.7437577 0.85905594 0
2.4489717 -3.753366 1.05545 0
2.4490862 -3.7548537 1.2528405 0
2.4446082 -3.7447596 1.4500984 0
2.4492116 -3.7576137 1.6547832 0
2.4485631 -3.7572255 1.8599385 0
2.4596181 -3.5655928 0.094066441 0
2.4566655 -3.5595827 0.28217655 0
2.4596019 -3.5678234 0.46972626 0
2.4573684 -3.5635524 0.65740788 0
2.4538765 -3.5562363 0.84510732 0
2.4570508 -3.5650697 1.0353897 0
2.452188 -3.5544434 1.2246711 0
2.455133 -3.562746 1.4190539 0
2.4573388 -3.5692778 1.6162118 0
2.4584918 -3.573277 1.8162683 0
2.4623537 -3.3772173 0.10409531 0
2.4627547 -3.3792434 0.28598043 0
2.4635506 -3.3821859 0.46773845 0
2.4690552 -3.3960838 0.6504389 0
2.4596629 -3.3753347 0.83167243 0
2.4613051 -3.3802595 1.0156608 0
2.4583144 -3.3744121 1.199734 0
2.4648252 -3.3906946 1.3898971 0
2.4649043 -3.3920221 1.5801487 0
2.4665484 -3.3970156 1.7745625 0
2.4738402 -3.2204652 0.11220175 0
2.4667358 -3.205637 0.28963631 0
2.4661937 -3.2054768 0.46585634 0
2.4724946 -3.2206297 0.64300972 0
2.4683414 -3.2123985 0.81978124 0
2.4682922 -3.2133555 0.9981215 0
2.4681301 -3.2140694 1.1779573 0
2.4708772 -3.2213092 1.361129 0
2.471806 -3.2244945 1.5462815 0
2.4697332 -3.2209735 1.7326785 0
7.8167725 -2.431113 -0.0537045 0
12.425604 -4.8178391 0.13646677 0
12.43372 -4.8245916 0.60908449 0
12.421883 -4.8210173 1.0817997 0
12.437598 -4.8317232 1.5579774 0
12.423528 -4.8270116 2.0342789 0
4.8794289 -0.83008957 -0.046500534 0
7.8696747 -2.3240438 -0.05305472 0
12.437135 -4.607079 0.13906017 0
12.427735 -4.6049142 0.60839868 0
12.438448 -4.6128035 1.0787203 0
12.438356 -4.6153026 1.5505852 0
12.424984 -4.6111732 2.0235548 0
4.9136577 -0.76714158 -0.046422452 0
7.9423137 -2.2264946 -0.053686023 0
12.447369 -4.3983593 0.14159867 0
12.431149 -4.3930559 0.60793102 0
12.44357 -4.4015584 1.0751898 0
12.444519 -4.404542 1.5440503 0
12.442075 -4.4059033 2.0154154 0
4.9429464 -0.70179081 -0.045942426 0
7.9897971 -2.1165438 -0.052880853 0
12.452168 -4.1896853 0.14417246 0
12.452187 -4.1921887 0.60782003 0
12.454013 -4.1955352 1.0721474 0
12.447941 -4.1952205 1.537585 0
12.450492 -4.1989298 2.0065682 0
8.0249872 -2.0012016 -0.051437974 0
12.465119 -3.9872727 0.14649367 0
12.457935 -3.9865394 0.60749918 0
12.451486 -3.9861345 1.0685698 0
12.444774 -3.9856186 1.5308239 0
12.466517 -3.9978576 1.999179 0
5.0027981 -0.57169318 -0.045377493 0
8.084198 -1.8966467 -0.051513165 0
12.460091 -3.7793369 0.14911634 0
12.46744 -3.7849569 0.60729432 0
12.457555 -3.7831674 1.0656519 0
12.458462 -3.7860293 1.5259563 0
12.47134 -3.7940626 1.9907404 0
8.108077 -1.7770996 -0.049599886 0
12.482024 -3.5852232 0.15110123 0
12.474256 -3.5844593 0.60709429 0
12.472503 -3.5861831 1.063398 0
12.471864 -3.5883751 1.5213575 0
12.463447 -3.5873637 1.9810679 0
8.1638327 -1.6709065 -0.049646676 0
12.475427 -3.3814583 0.15360487 0
12.475806 -3.384038 0.60685426 0
12.490837 -3.3924332 1.0614972 0
12.470544 -3.3868213 1.5156871 0
12.474786 -3.3909607 1.9743414 0
12.461284 -3.388072 2.4342852 0
5.0812044 -0.37173688 -0.044100821 0
8.2087889 -1.5602233 -0.049150288 0
12.486689 -3.1869659 0.15567017 0
12.483407 -3.1881337 0.6067664 0
12.494851 -3.1949034 1.0589805 0
12.483733 -3.1931014 1.5116463 0
12.489869 -3.1978784 1.9685026 0
12.481498 -3.1971526 2.4273319 0
5.1109858 -0.30640364 -0.044199497 0
8.2520189 -1.4488308 -0.048642576 0
12.485463 -2.9897161 0.15792035 0
12.483977 -2.9915757 0.60660696 0
12.500153 -2.9998655 1.0566992 0
12.485487 -2.9969378 1.5068345 0
12.482731 -2.9983602 1.9601845 0
12.486192 -3.0020685 2.4182827 0
5.1320119 -0.23785973 -0.043558061 0
8.3084812 -1.3419554 -0.048976421 0
12.495771 -2.798552 0.15987109 0
12.485251 -2.7972813 0.60650694 0
12.498335 -2.8042207 1.0541953 0
12.483802 -2.8015614 1.5019886 0
12.497807 -2.8088498 1.9551275 0
12.497159 -2.811059 2.4107854 0
5.1614556 -0.17218232 -0.04379648 0
8.3355579 -1.2247932 -0.047724307 0
12.496063 -2.6056666 0.16195673 0
12.501586 -2.6098709 0.6067096 0
12.495365 -2.6101837 1.0517907 0
12.505772 -2.616025 1.4995661 0
12.50098 -2.6168332 1.9489202 0
12.508788 -2.62185 2.4038868 0
5.1771049 -0.10193682 -0.042834103 0
8.3823166 -1.1141765 -0.047676682 0
12.512548 -2.4197066 0.16365974 0
12.497299 -2.4172525 0.60660779 0
12.507295 -2.4227748 1.0503439 0
12.507203 -2.4251194 1.4955394 0
12.498954 -2.4248967 1.9424285 0
12.509799 -2.430738 2.3957171 0
5.2017808 -0.034581423 -0.042802691 0
8.4055119 -0.99615598 -0.046393514 0
12.530078 -2.2352645 0.1652844 0
12.50878 -2.2312236 0.60681927 0
12.535467 -2.2415934 1.0499164 0
12.52455 -2.2406778 1.4932103 0
12.524076 -2.2429132 1.9397594 0
12.51441 -2.2424033 2.3886228 0
5.2257314 0.033107162 -0.042790413 0
8.4377928 -0.88106728 -0.04571262 0
12.510685 -2.0413949 0.16756521 0
12.507521 -2.0428319 0.60685915 0
12.519108 -2.0484726 1.0472567 0
12.528867 -2.0536058 1.489959 0
12.516718 -2.0525072 1.9333248 0
12.536091 -2.0604227 2.384789 0
5.2353945 0.10476947 -0.041554362 0
8.4665298 -0.76503897 -0.044925451 0
12.534026 -1.8611515 0.16896167 0
12.530491 -1.86253 0.60735542 0
12.535706 -1.8662682 1.0465045 0
12.516244 -1.8633621 1.4854431 0
12.534194 -1.8705595 1.9303881 0
12.531571 -1.8722281 2.3771276 0
8.4990644 -0.65004396 -0.044438362 0
12.527595 -1.6740689 0.17087176 0
12.535105 -1.6782951 0.60758364 0
12.537273 -1.6811688 1.0450969 0
12.529832 -1.6816077 1.4835238 0
12.538894 -1.6862588 1.926185 0
12.542628 -1.6895773 2.3724608 0
8.5266953 -0.53378415 -0.043770522 0
12.536972 -1.4922969 0.17242444 0
12.529192 -1.4927492 0.60767615 0
12.529849 -1.4952171 1.0433574 0
12.542998 -1.5006824 1.4818064 0
12.543381 -1.5031104 1.9223008 0
12.528391 -1.5018761 2.3641381 0
8.5537033 -0.41738868 -0.043158412 0
12.547929 -1.3118489 0.17389397 0
12.560335 -1.3169262 0.60844362 0
12.550706 -1.3170776 1.0432572 0
12.555766 -1.3205254 1.4802903 0
12.537896 -1.318846 1.9175098 0
12.541579 -1.3220184 2.3607013 0
5.3038263 0.38280559 -0.040253848 0
8.5924063 -0.30340147 -0.04327032 0
12.550339 -1.1304562 0.17547023 0
12.52755 -1.1279922 0.60816342 0
12.529788 -1.1307511 1.0410891 0
12.565907 -1.1406057 1.4787753 0
12.547388 -1.1390505 1.9149276 0
12.550175 -1.1419728 2.3569512 0
8.6048689 -0.18391097 -0.042046845 0
12.556864 -0.95087194 0.17691731 0
12.554552 -0.95270967 0.6089468 0
12.568705 -0.95774388 1.042217 0
12.56031 -0.95841217 1.4761009 0
12.552918 -0.95928717 1.9121804 0
12.55471 -0.96196604 2.3529742 0
5.3373957 0.52226746 -0.040076047 0
8.6329489 -0.067516088 -0.041758507 0
12.56249 -0.77193403 0.17832971 0
12.572836 -0.77606487 0.60962462 0
12.560006 -0.77604842 1.0409704 0
12.555312 -0.77749562 1.4737148 0
12.567466 -0.78198075 1.9108794 0
12.551057 -0.78135514 2.3481069 0
5.3423657 0.5941034 -0.039064735 0
8.6512651 0.050687432 -0.041033179 0
12.572646 -0.59449303 0.17960921 0
12.570876 -0.59647441 0.60999829 0
12.571051 -0.59877872 1.0408995 0
12.557423 -0.59881711 1.4721872 0
12.571474 -0.60342908 1.908591 0
12.572351 -0.60589123 2.3476548 0
5.3571405 0.66428298 -0.039018512 0
8.6757879 0.16793311 -0.040729642 0
12.573689 -0.41623175 0.18100515 0
12.574073 -0.4185549 0.6105026 0
12.576253 -0.42114973 1.0406559 0
12.572658 -0.42288756 1.4720426 0
12.582219 -0.42661405 1.9074568 0
12.584443 -0.42926073 2.3461378 0
8.6695108 0.28952789 -0.038873315 0
12.589874 -0.24074459 0.18207912 0
12.578918 -0.2415266 0.61107755 0
12.582523 -0.2442764 1.0406017 0
12.593405 -0.24802196 1.4726055 0
12.575588 -0.24789345 1.9044915 0
12.574204 -0.2500093 2.3414669 0
8.7160892 0.40412456 -0.039919674 0
12.583227 -0.062723875 0.18351555 0
12.601762 -0.067211628 0.61200613 0
12.592584 -0.068364501 1.0408795 0
12.581429 -0.069283247 1.4705153 0
12.583704 -0.071837902 1.9036645 0
12.597878 -0.075855255 2.3426108 0
5.3912416 0.87675118 -0.038502157 0
8.7203569 0.52412814 -0.038806289 0
12.58693 0.11339962 0.18471837 0
12.584035 0.11145699 0.61227536 0
12.593352 0.10821593 1.0408015 0
12.586781 0.10665429 1.4701705 0
12.592695 0.10374904 1.9032576 0
12.601474 0.10051692 2.3409581 0
5.3892217 0.94897473 -0.037329108 0
8.7190962 0.64439505 -0.037493676 0
12.61111 0.28722417 0.1855126 0
12.600345 0.28596127 0.61317664 0
12.589588 0.2846992 1.0406176 0
12.613079 0.28028417 1.4718844 0
12.602598 0.27897573 1.9032733 0
12.581994 0.27858639 2.336041 0
5.4101863 1.0191917 -0.038267195 0
8.7357712 0.76293474 -0.037217975 0
12.60802 0.46338475 0.18674375 0
12.612126 0.46082443 0.61404282 0
12.599069 0.45958823 1.04126 0
12.587525 0.45823014 1.4692703 0
12.61918 0.45350641 1.9044203 0
12.618414 0.45127642 2.3404074 0
8.736887 0.88266158 -0.03621313 0
12.610248 0.63873547 0.18783511 0
12.625707 0.63552648 0.61498404 0
12.60835 0.63437468 1.0420232 0
12.619408 0.63142651 1.4719125 0
12.608219 0.62986904 1.9024862 0
12.618464 0.62693524 2.3393941 0
8.7415619 1.0020354 -0.035485983 0
12.610127 0.8139503 0.18892193 0
12.602746 0.81207222 0.6153276 0
12.613412 0.80931747 1.0426955 0
12.627249 0.80639559 1.4726661 0
12.602978 0.80532086 1.9015648 0
12.609456 0.80272388 2.3373418 0
5.4085784 1.2347894 -0.035955548 0
8.7514114 1.1212035 -0.035119116 0
12.615113 0.98874617 0.18987526 0
12.630004 0.98600626 0.6165961 0
12.614928 0.98428392 1.0433125 0
12.641594 0.98112166 1.4742093 0
12.635819 0.97905958 1.9056356 0
12.630512 0.97696298 2.340457 0
5.4055266 1.3064948 -0.035146922 0
8.7586088 1.2405894 -0.034702331 0
12.645191 1.1630239 0.19035259 0
12.61868 1.1613116 0.61722845 0
12.630743 1.1588382 1.0448132 0
12.646413 1.1562792 1.4751366 0
12.631489 1.1543216 1.9054414 0
12.616665 1.1523485 2.3384314 0
5.4134898 1.3780193 -0.035389066 0
8.7584457 1.3601525 -0.03399092 0
12.63497 1.3382761 0.19148128 0
12.627587 1.3360852 0.61826187 0
12.635957 1.3338056 1.0458877 0
12.637785 1.3315532 1.4751029 0
12.645951 1.3292481 1.9078676 0
12.64556 1.3269728 2.3435845 0
8.7573433 1.4796841 -0.033320487 0
12.648041 1.5134201 0.19216698 0
12.637365 1.5110946 0.61935568 0
12.63499 1.5088416 1.0467677 0
12.647213 1.5067059 1.4768739 0
12.653929 1.5045053 1.9098045 0
12.648716 1.5021862 2.3450511 0
5.4052014 1.521175 -0.034031242 0
8.7399616 1.5988315 -0.03189379 0
12.646708 1.6886475 0.19305587 0
12.662891 1.6867936 0.62077713 0
12.645659 1.6841614 1.0483944 0
12.639207 1.6817738 1.4773325 0
12.650153 1.6797688 1.9106023 0
12.656319 1.6776326 2.3476226 0
8.7470531 1.7184883 -0.031828642 0
12.655628 1.8643403 0.19372776 0
12.668206 1.8625824 0.62188345 0
12.66198 1.8601146 1.0504549 0
12.662921 1.8579074 1.4808036 0
12.6584 1.8554835 1.913192 0
12.655146 1.8530891 2.3491993 0
5.4110675 1.6647906 -0.034264177 0
8.7339439 1.8374233 -0.030804336 0
12.657817 2.0401273 0.19447136 0
12.649503 2.0374663 0.62260115 0
12.656594 2.0356019 1.0514994 0
12.661172 2.0335972 1.4822558 0
12.657292 2.0311427 1.9149387 0
12.64853 2.0284204 2.3503084 0
5.3994603 1.7359002 -0.033250213 0
8.7369461 1.9572325 -0.030705154 0
12.674201 2.2171822 0.19493392 0
12.673804 2.2149234 0.62414277 0
12.662749 2.2119579 1.0532905 0
12.668643 2.2101045 1.4847445 0
12.668878 2.2078631 1.9185669 0
12.669763 2.2056451 2.3562562 0
5.3974442 1.8075905 -0.033160269 0
8.7244444 2.0761006 -0.029891729 0
12.683134 2.3944404 0.19548061 0
12.677511 2.3917532 0.62535858 0
12.664537 2.388473 1.054985 0
12.684163 2.3878059 1.4881723 0
12.670624 2.3844624 1.9212939 0
12.670414 2.382169 2.3593316 0
8.7129507 2.1949818 -0.029220134 0
12.673641 2.5706108 0.19629346 0
12.670653 2.5680938 0.62642789 0
12.669185 2.5657182 1.0569687 0
12.688249 2.56528 1.4908172 0
12.68173 2.5624037 1.9254997 0
12.693022 2.5611885 2.3663259 0
8.7050009 2.3142474 -0.028821826 0
12.67534 2.7482176 0.19687672 0
12.686296 2.7471821 0.62795877 0
12.692926 2.7456675 1.0601151 0
12.688266 2.7429094 1.4933292 0
12.685374 2.7403324 1.9291008 0
12.682214 2.7377076 2.3683884 0
8.6863976 2.4323359 -0.027961075 0
12.687734 2.9277596 0.19724023 0
12.694557 2.9263663 0.62940383 0
12.697939 2.9245424 1.0624003 0
12.687819 2.9210403 1.4960296 0
12.68963 2.9189992 1.9331008 0
12.692442 2.9170623 2.3742356 0
8.6799011 2.5519929 -0.027817458 0
12.694773 3.1075528 0.19765125 0
12.697199 3.1056466 0.6307947 0
12.709925 3.1051621 1.0652039 0
12.69115 3.1003113 1.4992995 0
12.685396 3.0972512 1.9363666 0
12.70384 3.0975084 2.3806961 0
5.3657389 2.1649511 -0.032178044 0
8.653121 2.6688256 -0.026711822 0
12.710087 3.2895322 0.19788381 0
12.709846 3.2872486 0.632424 0
12.688512 3.2817338 1.0663452 0
12.705997 3.2821507 1.5038382 0
12.712452 3.2808647 1.9438795 0
12.719196 3.2796001 2.388226 0
8.6354141 2.786931 -0.02616623 0
12.713831 3.4708078 0.19826576 0
12.709651 3.467855 0.63386405 0
12.707053 3.4651661 1.0697939 0
12.706969 3.4628911 1.5073748 0
12.702121 3.4598048 1.9470431 0
12.70974 3.4587848 2.3921816 0
8.6301289 2.9073713 -0.026355982 0
12.716032 3.652782 0.19863077 0
12.704222 3.6483705 0.63525611 0
12.706767 3.6465795 1.0723689 0
12.706881 3.6443355 1.5110568 0
12.718465 3.644166 1.9538988 0
12.722816 3.6426568 2.4002175 0
5.3129878 2.374052 -0.029716939 0
8.6050806 3.0243821 -0.025609016 0
12.717195 3.8355696 0.19897018 0
12.728166 3.8354764 0.63726234 0
12.729543 3.8334844 1.0763555 0
12.721379 3.8296025 1.5163039 0
12.711248 3.8253226 1.9581276 0
12.738696 3.8284187 2.4091618 0
8.5739594 3.1400456 -0.024634808 0
12.740554 4.0241451 0.19890277 0
12.721925 4.0179205 0.63874614 0
12.732038 4.0177989 1.0793874 0
12.718051 4.0125561 1.5201881 0
12.735606 4.0139856 1.9667046 0
12.725579 4.009552 2.4138305 0
5.2940874 2.5165634 -0.029952556 0
8.5417194 3.2552671 -0.02369085 0
12.733739 4.207675 0.19928722 0
12.742542 4.2074051 0.64080513 0
12.729056 4.2020655 1.0822711 0
12.738226 4.2018652 1.5264666 0
12.713261 4.1939049 1.9697036 0
12.748999 4.1996908 2.4249265 0
5.2717462 2.5849628 -0.029069155 0
8.5343904 3.3763657 -0.024138659 0
12.744644 4.3965092 0.19933802 0
12.745426 4.3944192 0.6425789 0
12.745032 4.3920422 1.0863622 0
12.738457 4.3881607 1.531189 0
12.734473 4.3848934 1.9786108 0
12.737273 4.3832474 2.4307261 0
5.2590165 2.6556797 -0.029125005 0
8.5051022 3.4924309 -0.02352941 0
12.25049 4.4567351 0.20759772 0
12.240252 4.4519033 0.63439667 0
12.240833 4.4498587 1.0615916 0
12.257388 4.4519162 1.4918756 0
12.254668 4.448998 1.9235286 0
12.260508 4.4482603 2.3601274 0
8.458396 3.6037531 -0.022094607 0
11.650464 4.4742856 0.21753043 0
11.669036 4.4772682 0.62481147 0
11.652288 4.4706049 1.0319636 0
11.670994 4.4736052 1.442682 0
11.667212 4.4704609 1.8543843 0
11.657724 4.4657445 2.2684207 0
5.2141104 2.792001 -0.027780265 0
8.427247 3.7191002 -0.021565199 0
11.11831 4.4943204 0.22630312 0
11.125948 4.4945278 0.61567169 0
11.133042 4.4945741 1.0060499 0
11.125963 4.4905272 1.3970687 0
11.130276 4.4897499 1.7914549 0
11.122254 4.4854054 2.1875064 0
5.1958609 2.8613071 -0.027616203 0
8.3941917 3.8339295 -0.02102527 0
10.620268 4.5096016 0.23447348 0
10.626185 4.5094924 0.60729015 0
10.63844 4.5113029 0.98136228 0
10.63615 4.508687 1.3563536 0
10.621718 4.5023746 1.7319034 0
10.636338 4.5048609 2.1145046 0
5.1695957 2.9281278 -0.026823312 0
8.3639708 3.9497204 -0.020725787 0
10.187671 4.5316339 0.24153587 0
10.170028 4.5241585 0.5996868 0
10.174115 4.5236316 0.95822835 0
10.16901 4.5201616 1.3175311 0
10.169785 4.5185566 1.6794393 0
10.178516 4.5194759 2.0458701 0
10.173935 4.5161252 2.4142859 0
8.313694 4.0589695 -0.01945135 0
9.7514372 4.540206 0.248622 0
9.7652607 4.5430861 0.59303689 0
9.7580881 4.5389175 0.93769497 0
9.7460432 4.5331116 1.2826362 0
9.7544422 4.5341482 1.6315013 0
9.758687 4.5337749 1.9832982 0
9.7496605 4.5289402 2.3365831 0
5.1267252 3.0647788 -0.026372731 0
8.2810373 4.1740294 -0.01920253 0
9.3682632 4.5549779 0.25481075 0
9.3572159 4.5494013 0.58623111 0
9.3801813 4.5557775 0.91920924 0
9.3638935 4.5483541 1.2513942 0
9.363822 4.546618 1.5865602 0
9.377882 4.5498247 1.9270197 0
9.3651285 4.5436049 2.2667375 0
8.2411079 4.2866359 -0.018656343 0
9.0145807 4.569726 0.26048988 0
9.016839 4.568924 0.58074206 0
8.9992313 4.5608168 0.9004069 0
9.0116968 4.5637579 1.2228107 0
9.007062 4.5604053 1.5458536 0
9.0140829 4.5613184 1.8733338 0
9.016839 4.5606451 2.2040977 0
5.0748954 3.1982856 -0.025469482 0
8.2079201 4.4018793 -0.018563032 0
8.6732836 4.5792103 0.26594168 0
8.6678476 4.5755477 0.57499659 0
8.678462 4.5780468 0.88496816 0
8.6681671 4.5725126 1.1948712 0
8.6757479 4.5738287 1.5083022 0
8.686964 4.5765219 1.8256357 0
8.6696939 4.5682783 2.1413519 0
8.6739159 4.5682492 2.4654577 0
8.1522684 4.5084333 -0.017350137 0
8.3530159 4.5874043 0.27102762 0
8.3442774 4.5823832 0.56970817 0
8.354949 4.5851355 0.86924589 0
8.3566227 4.5842762 1.1698239 0
8.3688231 4.5876184 1.4737966 0
8.3613091 4.5830603 1.7779047 0
8.3460932 4.5754094 2.0832038 0
8.362793 4.5804911 2.3995473 0
5.0298529 3.3345993 -0.025550336 0
8.063694 4.6008644 -0.014434874 0
8.0492134 4.5933456 0.27582461 0
8.0815544 4.6053715 0.56564623 0
8.0558662 4.5931797 0.85483611 0
8.0732288 4.5989399 1.1473364 0
8.0600567 4.5919609 1.4388152 0
8.0678873 4.5937214 1.7354686 0
8.0622282 4.5898466 2.0331502 0
8.0554037 4.5854673 2.3341827 0
4.9984293 3.3991265 -0.024906337 0
7.7919545 4.6122565 -0.0015997291 0
7.785852 4.6081772 0.27994084 0
7.7880569 4.6077089 0.56086105 0
7.7747445 4.600503 0.84137213 0
7.7813106 4.6019206 1.1238515 0
7.7771006 4.5986538 1.4071006 0
7.7944903 4.6047382 1.6962608 0
7.7785363 4.5963545 1.9828227 0
7.7796698 4.595356 2.2764328 0
7.5342374 4.6222982 0.010500878 0
7.5241423 4.616353 0.28401399 0
7.5193343 4.6128016 0.55654335 0
7.5391865 4.6203737 0.83052814 0
7.5276661 4.6137857 1.1039524 0
7.5224466 4.6100349 1.3790402 0
7.5239515 4.6093035 1.6572899 0
7.5325913 4.6117687 1.9402989 0
7.547245 4.6169171 2.2293897 0
4.9384389 3.5292594 -0.02414757 0
7.2728486 4.6233215 0.02283895 0
7.2911987 4.6305828 0.28759938 0
7.2900996 4.6287231 0.55302966 0
7.2819514 4.62356 0.81827813 0
7.2830906 4.6227446 1.0847999 0
7.2851644 4.6223564 1.3531798 0
7.2864037 4.6215663 1.6238906 0
7.2781453 4.6163187 1.8956504 0
7.2820973 4.6167641 2.1736388 0
7.2793102 4.6140342 2.4544477 0
4.903192 3.5917749 -0.023407161 0
7.0490632 4.6351271 0.033140481 0
7.0492406 4.6339064 0.29132086 0
7.0501304 4.6330338 0.54922307 0
7.0505147 4.6319141 0.80748487 0
7.0548282 4.632699 1.0671241 0
7.0475278 4.6278334 1.3270783 0
7.0390201 4.6223731 1.5884931 0
7.0402546 4.6216283 1.8542923 0
7.0560741 4.6279397 2.1276155 0
7.0473428 4.6223192 2.3992403 0
4.8812099 3.660846 -0.02401194 0
6.8228292 4.63941 0.043610454 0
6.8169847 4.6351938 0.29487181 0
6.8310008 4.6409922 0.54582405 0
6.8239145 4.6361513 0.79688478 0
6.8202167 4.6330147 1.0486596 0
6.8250217 4.6341524 1.3028889 0
6.8314266 4.6360822 1.5599804 0
6.8307972 4.6344562 1.8188899 0
6.8118343 4.6235943 2.0765014 0
6.8234372 4.6280823 2.3460765 0
4.8413081 3.720921 -0.023005575 0
6.6224904 4.6507649 0.05267036 0
6.6181073 4.6472383 0.29785976 0
6.6259599 4.6501036 0.54269028 0
6.6213894 4.6464801 0.78767246 0
6.6286244 4.6490135 1.0344003 0
6.6206779 4.6436186 1.281069 0
6.6135478 4.6386414 1.5293888 0
6.6274943 4.6446371 1.7845997 0
6.6138945 4.63626 2.0371523 0
6.6009765 4.6282229 2.2929463 0
4.812758 3.7868919 -0.023173153 0
6.4295573 4.6605186 0.061343998 0
6.424706 4.6566887 0.30074722 0
6.4310975 4.6589394 0.53973889 0
6.4148164 4.6489363 0.77811384 0
6.4040146 4.6418943 1.0166367 0
6.4180055 4.6482348 1.2593071 0
6.417098 4.6465187 1.50246 0
6.4206886 4.6472158 1.7492596 0
6.4203515 4.6457758 1.9986833 0
6.4091721 4.6384716 2.2488048 0
4.7808104 3.8511667 -0.023108542 0
6.2283731 4.6602416 0.070519269 0
6.2283125 4.6590338 0.30367699 0
6.2339959 4.6610394 0.53668571 0
6.2381663 4.6621962 0.77034438 0
6.233892 4.6586266 1.0043263 0
6.2385793 4.660058 1.2406957 0
6.2304931 4.654346 1.4771245 0
6.2229304 4.6489158 1.7156574 0
6.2250485 4.6488733 1.9594413 0
6.2264514 4.6484108 2.2071435 0
4.7435093 3.9124599 -0.022615105 0
6.0561538 4.6709113 0.078085035 0
6.037291 4.6588564 0.30651122 0
6.046432 4.6629987 0.53380311 0
6.0564866 4.6676645 0.76217473 0
6.0566368 4.6665993 0.99116838 0
6.0440693 4.6581841 1.2197374 0
6.0397868 4.6545458 1.4508071 0
6.0554447 4.6624031 1.688651 0
6.0510859 4.6586914 1.9256181 0
6.041563 4.6519842 2.164474 0
4.7043834 3.972609 -0.022029787 0
5.8798862 4.6743679 0.085914671 0
5.8813434 4.6741199 0.30874977 0
5.8903079 4.6783566 0.53161663 0
5.8806458 4.6714659 0.75428969 0
5.8706837 4.6643953 0.97696638 0
5.8809733 4.6694069 1.203168 0
5.888454 4.6727295 1.4316368 0
5.8738699 4.662878 1.6581923 0
5.8751273 4.6624608 1.8909726 0
5.8692908 4.6577969 2.1254077 0
4.664762 4.0323601 -0.021481335 0
5.7166247 4.6808243 0.093030095 0
5.711308 4.6764498 0.31122008 0
5.7067246 4.6725307 0.52873182 0
5.7041163 4.6698303 0.74626732 0
5.7084479 4.6714058 0.96513039 0
5.7231216 4.6793461 1.1872265 0
5.7139835 4.6726007 1.4079341 0
5.7154207 4.6723595 1.6328026 0
5.7055254 4.6651258 1.8577551 0
5.7197909 4.6727476 2.0932467 0
5.543529 4.676414 0.10075611 0
5.5456171 4.6766782 0.31361333 0
5.567512 4.6895566 0.52687252 0
5.5545816 4.6802535 0.73992026 0
5.5639725 4.6851578 0.95507997 0
5.5687084 4.6870899 1.1716497 0
5.5514388 4.6750145 1.3862712 0
5.5385261 4.6657047 1.602869 0
5.559092 4.6776643 1.8306454 0
5.5611844 4.6778588 2.0579097 0
5.4138913 4.6954994 0.10597184 0
5.3925953 4.6804523 0.31578779 0
5.4042253 4.6870532 0.52438718 0
5.3989501 4.6825428 0.73309553 0
5.4170952 4.6934109 0.94467384 0
5.4053211 4.6846223 1.1545668 0
5.4065623 4.6843715 1.3678014 0
5.4021873 4.6804237 1.5821909 0
5.4090557 4.6838374 1.8022982 0
5.4023051 4.6783009 2.0221496 0
4.5477943 4.2125583 -0.020552844 0
5.262382 4.6963663 0.11250287 0
5.2578149 4.692246 0.31764606 0
5.2740645 4.7022381 0.52267981 0
5.2441092 4.680913 0.72623652 0
5.2707958 4.6979675 0.93422067 0
5.2488322 4.6820569 1.1383376 0
5.2413383 4.6759429 1.3451831 0
5.2708416 4.69486 1.5625327 0
5.2640128 4.6891689 1.775089 0
5.2583976 4.6842837 1.990924 0
5.1158743 4.6963692 0.11877659 0
5.1251373 4.7018442 0.31946373 0
5.118608 4.6962776 0.5203017 0
5.1271596 4.701251 0.72185826 0
5.1170273 4.6931648 0.92282069 0
5.1201887 4.6943607 1.1261995 0
5.1228895 4.6952248 1.3315156 0
5.1187339 4.6912913 1.5376992 0
5.1088719 4.6833649 1.7447209 0
5.1227059 4.6919522 1.9621098 0
4.9947925 4.710465 0.12355563 0
4.9855261 4.7028027 0.32139891 0
4.9811263 4.6986513 0.51833433 0
4.9821506 4.6984081 0.71550941 0
4.9748259 4.6921482 0.91256702 0
4.9795971 4.6945925 1.1120863 0
4.9926343 4.7029753 1.3153899 0
4.9883666 4.6988916 1.5178717 0
4.9661031 4.6818542 1.7175626 0
4.9846125 4.6941228 1.932209 0
4.420794 4.385766 -0.019401282 0
4.857636 4.7094116 0.12933692 0
4.8466649 4.7003002 0.32332081 0
4.8616753 4.7104845 0.51679462 0
4.8638926 4.7111659 0.71092761 0
4.859899 4.7072344 0.90526843 0
4.8620286 4.7078409 1.1014202 0
4.8646412 4.7087946 1.2995503 0
4.8521285 4.6985245 1.4963928 0
4.8548326 4.6995239 1.699277 0
4.8659754 4.7067575 1.9085548 0
4.7371836 4.7171516 0.13413277 0
4.7309237 4.7114158 0.32483613 0
4.7217636 4.7034659 0.51468635 0
4.7209358 4.70189 0.70455378 0
4.7316623 4.7091436 0.89637315 0
4.7210956 4.7001138 1.0869355 0
4.7214227 4.6994028 1.280432 0
4.7246933 4.7009306 1.4768487 0
4.7318506 4.70541 1.6773925 0
4.7258186 4.6998024 1.8773291 0
4.619679 4.7239008 0.13877481 0
4.6113892 4.7164383 0.32641611 0
4.6097546 4.7142243 0.51327527 0
4.6124182 4.7153945 0.70052856 0
4.6128707 4.7148199 0.88845515 0
4.6057239 4.7082572 1.076358 0
4.614387 4.7141304 1.2685053 0
4.5982947 4.7005148 1.4573336 0
4.6016507 4.7021885 1.6531122 0
4.611814 4.709197 1.8547329 0
4.2962685 4.5611305 -0.019331098 0
4.4969511 4.7231622 0.14377618 0
4.4949384 4.7206173 0.3279404 0
4.4917235 4.7170992 0.51167238 0
4.4790921 4.7059441 0.69466615 0
4.4998507 4.7218657 0.88111341 0
4.4892936 4.7123871 1.0654863 0
4.4924154 4.7139902 1.2533524 0
4.4838381 4.7061038 1.4406141 0
4.4853048 4.7063432 1.6326975 0
4.4805999 4.7015691 1.8258842 0
4.2472134 4.6135697 -0.018676847 0
4.3751535 4.7196293 0.14876121 0
4.3682346 4.7129555 0.32964975 0
4.3757443 4.7183375 0.51009023 0
4.3888478 4.7283864 0.69184852 0
4.3786726 4.7189913 0.87271011 0
4.3764234 4.7162118 1.0550625 0
4.3726249 4.7121325 1.238459 0
4.3805656 4.7178369 1.4265823 0
4.38096 4.7172322 1.6157048 0
4.383563 4.7184534 1.8087252 0
4.2026749 4.6697454 -0.018603861 0
4.2713037 4.7279234 0.1526393 0
4.2719827 4.7276282 0.33080977 0
4.2860031 4.7388067 0.50920278 0
4.2694345 4.7236805 0.686849 0
4.273726 4.7264872 0.86613142 0
4.2777228 4.7290335 1.0468657 0
4.2713804 4.7226887 1.2273216 0
4.2774458 4.7269921 1.4124452 0
4.265245 4.7155981 1.595016 0
4.264823 4.7143049 1.7836491 0
4.1535053 4.7219276 -0.018108249 0
4.1715255 4.737021 0.15627912 0
4.1640515 4.7295384 0.33218071 0
4.160892 4.7258792 0.50729877 0
4.1644282 4.7281456 0.68284309 0
4.1593885 4.7228198 0.85832232 0
4.1716747 4.7328148 1.0373387 0
4.1627731 4.724062 1.2144657 0
4.1648984 4.7250519 1.3956521 0
4.1627469 4.7222486 1.5781803 0
4.1553411 4.7147894 1.7615731 0
-2.5962415 5.4180522 -0.017421544 0
-4.6060667 8.1045055 -0.0040703714 0
-14.622441 21.492992 0.063072354 0
-2.6490993 5.369122 -0.017082512 0
-4.6904378 8.0178032 -0.0036072135 0
-14.904763 21.27112 0.061921775 0
-2.7052627 5.3246589 -0.017297029 0
-4.7925954 7.9543066 -0.0046507716 0
-15.190137 21.053247 0.060613513 0
-2.7634711 5.2826939 -0.017871141 0
-4.8727765 7.8632903 -0.0040747821 0
-15.478061 20.83819 0.059163213 0
-2.8181167 5.2363014 -0.01805985 0
-4.9718213 7.7955756 -0.0050440431 0
-15.753232 20.607279 0.057899892 0
-5.0656757 7.7213454 -0.0056989193 0
-16.021822 20.368752 0.056684881 0
-2.9277692 5.143918 -0.01875174 0
-5.1471581 7.6330056 -0.0055296123 0
-16.27879 20.117374 0.055619359 0
-5.2480755 7.5663486 -0.0068690479 0
-16.561979 19.895281 0.053922176 0
-3.0332546 5.0467863 -0.01927349 0
-5.3192058 7.4673409 -0.0061527491 0
-16.826664 19.652431 0.052518368 0
-3.0847416 4.9968939 -0.019515663 0
-5.417222 7.3969607 -0.0074435771 0
-17.087687 19.405598 0.051099777 0
-3.1350932 4.9458613 -0.019712478 0
-5.5081453 7.3187633 -0.0083097219 0
-17.338472 19.148335 0.049795449 0
-3.1805167 4.8900566 -0.019422352 0
-5.5973196 7.2385063 -0.0091346502 0
-17.583214 18.885376 0.048518598 0
-5.6764731 7.148469 -0.0093633533 0
-17.843243 18.637159 0.046853274 0
-3.2816854 4.7886224 -0.020329028 0
-5.7464552 7.0501781 -0.0090754926 0
-18.082438 18.369102 0.045503676 0
-5.8382902 6.9719496 -0.010334462 0
-18.324371 18.103678 0.044010967 0
-3.3757744 4.6806016 -0.020780414 0
-5.9062271 6.8723893 -0.010107875 0
-18.561792 17.834198 0.042514741 0
-5.9829268 6.7807226 -0.010550588 0
-18.789104 17.556093 0.041119099 0
-3.4670992 4.5702915 -0.02128759 0
-6.0707026 6.6981258 -0.011789441 0
-19.032804 17.291576 0.039327621 0
-6.1397724 6.6001019 -0.011921763 0
-19.247623 17.003357 0.03798449 0
-3.5594316 4.4606962 -0.022257864 0
-6.221869 6.5123687 -0.012964398 0
-19.466169 16.718405 0.036481082 0
-6.2751031 6.402626 -0.012299895 0
-19.678604 16.428909 0.034999192 0
-6.3469515 6.3072205 -0.012887657 0
-19.905727 16.150196 0.033160925 0
-3.6865382 4.2873673 -0.023162246 0
-6.4227872 6.2145519 -0.01380527 0
-20.106724 15.852377 0.03170687 0
-3.7286139 4.2293444 -0.02361086 0
-6.4919214 6.1170039 -0.014401495 0
-20.309198 15.555817 0.030135512 0
-6.5571609 6.0168052 -0.01485303 0
-20.509209 15.257627 0.028518289 0
-3.8099561 4.1112542 -0.024483293 0
-6.615376 5.9121265 -0.014978647 0
-20.70295 14.955341 0.026922822 0
-6.6807156 5.8121371 -0.015618771 0
-20.891582 14.649891 0.025327772 0
-3.8856206 3.9894321 -0.02513805 0
-6.7478566 5.7131433 -0.016451597 0
-21.086449 14.34823 0.023533374 0
-3.9158573 3.9240584 -0.02485019 0
-6.804173 5.6076245 -0.01674211 0
-21.264259 14.036253 0.021949083 0
-6.8733072 5.5094843 -0.017863095 0
-21.45719 13.732916 0.020011157 0
-3.9894137 3.8010828 -0.025838524 0
-6.9214745 5.3995161 -0.01786685 0
-21.615744 13.410217 0.018582672 0
-4.024826 3.7387543 -0.026331067 0
-6.9875388 5.2993155 -0.018983841 0
-21.785814 13.094076 0.016863555 0
-4.0535922 3.6729684 -0.026273757 0
-7.0301523 5.1868043 -0.01885879 0
-21.951603 12.77566 0.01512897 0
-4.0894594 3.6108043 -0.026986897 0
-7.0884142 5.0823922 -0.019709706 0
-22.107227 12.452147 0.013479978 0
-4.1250439 3.5483549 -0.027758092 0
-7.1561365 4.9822598 -0.021175027 0
-22.275511 12.13471 0.011523694 0
-7.2034726 4.8722525 -0.021587759 0
-22.425837 11.808577 0.0097866058 0
-7.243938 4.7593107 -0.021711856 0
-22.5721 11.480612 0.0080294013 0
-4.2154975 3.3529849 -0.029057801 0
-7.2980189 4.6523709 -0.022678614 0
-22.715359 11.151312 0.0062339008 0
-4.2302108 3.2814941 -0.028237909 0
-7.3346138 4.5380921 -0.022773743 0
-22.853592 10.819849 0.0044345856 0
-4.2579923 3.2154889 -0.02872318 0
-7.3814502 4.4280672 -0.023520947 0
-22.969322 10.479536 0.0029290318 0
-4.2808776 3.1475999 -0.028847396 0
-7.4328513 4.3196249 -0.024604142 0
-23.103245 10.146454 0.00102368 0
-4.3101659 3.0820589 -0.029647708 0
-7.4677644 4.204999 -0.024880916 0
-23.231657 9.8111267 -0.00087741017 0
-4.3329568 3.0141382 -0.029942662 0
-7.496603 4.0884752 -0.024922043 0
-23.348648 9.4716606 -0.0026738644 0
-4.3545718 2.9458444 -0.030220926 0
-7.5402169 3.9770453 -0.025850207 0
-23.45417 9.1284304 -0.0043651164 0
-4.3736429 2.8767805 -0.030359566 0
-7.5829186 3.8651187 -0.026816845 0
-23.563173 8.7864332 -0.006205231 0
-7.6113119 3.7487717 -0.027106613 0
-23.66427 8.4420195 -0.0080006421 0
-7.6390676 3.6324086 -0.027453631 0
-23.773245 8.0997753 -0.01001969 0
-4.4386473 2.671885 -0.032014877 0
-7.6733055 3.5178704 -0.028235823 0
-23.854818 7.749959 -0.011662483 0
-4.4525857 2.6015029 -0.032053828 0
-7.7016449 3.4017553 -0.028793961 0
-23.955984 7.4052525 -0.01372835 0
-7.7357769 3.2869897 -0.029748321 0
-24.032951 7.0544882 -0.015471935 0
-4.4919415 2.4634871 -0.033423215 0
-7.7598028 3.1698203 -0.030257106 0
-24.124691 6.7070336 -0.017557144 0
-7.783639 3.0526507 -0.030845851 0
-24.195103 6.3548126 -0.019368291 0
-4.5130248 2.321517 -0.033530146 0
-7.8172216 2.9372926 -0.032037526 0
-24.253567 6.0003786 -0.021064699 0
-4.5254521 2.2509871 -0.033885986 0
-7.8442593 2.8204656 -0.03297323 0
-24.307362 5.64536 -0.022770137 0
-7.8510656 2.700259 -0.032934576 0
-24.377129 5.2930508 -0.024839371 0
-4.5486956 2.1096411 -0.034724534 0
-7.8685665 2.5819216 -0.033548385 0
-24.433128 4.9383702 -0.026762187 0
-4.5577626 2.0385892 -0.035053492 0
-7.8738661 2.4620047 -0.033611357 0
-24.47917 4.5822582 -0.028603196 0
-4.5650716 1.9673381 -0.035317779 0
-7.89223 2.3438563 -0.034449935 0
-24.51478 4.2249484 -0.030353338 0
-7.9052143 2.2250333 -0.03509587 0
-24.557405 3.8684711 -0.032314539 0
-4.5858092 1.8253912 -0.036652237 0
-7.9105844 2.105531 -0.035431743 0
-24.586571 3.5106456 -0.034131736 0
-4.6027265 1.7547052 -0.038027823 0
-7.929388 1.9871056 -0.036562502 0
-24.602858 3.1519475 -0.03581351 0
-4.5926528 1.6821669 -0.03712672 0
-7.9235392 1.8670049 -0.036488235 0
-24.631712 2.7942011 -0.037804335 0
-7.9420633 1.7482723 -0.037784249 0
-24.64831 2.435689 -0.039670199 0
-7.930934 1.6283464 -0.037610531 0
-24.668352 2.07722 -0.041686833 0
-4.6072841 1.467436 -0.038894922 0
-7.936285 1.5090424 -0.03839311 0
-24.684256 1.7184007 -0.043721199 0
-4.5950141 1.3956941 -0.038158506 0
-7.943737 1.3896245 -0.039376676 0
-24.689398 1.359273 -0.04565528 0
-4.6050954 1.3239503 -0.039475083 0
-7.9420462 1.2701324 -0.039967865 0
-24.676416 1.00027 -0.047356039 0
-4.5971751 1.2524247 -0.039298952 0
-7.9367361 1.1507437 -0.040457219 0
-24.674803 0.64112926 -0.049349457 0
-7.9292288 1.0315014 -0.040919274 0
-24.655144 0.28252709 -0.051108479 0
-4.6002188 1.108732 -0.04087913 0
-7.9197788 0.91243565 -0.041367233 0
-24.627909 -0.075523019 -0.052819312 0
-7.9037952 0.79391772 -0.04155615 0
-24.602396 -0.43352592 -0.054650068 0
-7.9057751 0.67403448 -0.042792022 0
-24.588728 -0.79259062 -0.05678764 0
-4.5758452 0.89482796 -0.041368216 0
-7.9042616 0.55414987 -0.043933928 0
-24.546253 -1.1492226 -0.058487773 0
-4.5801754 0.82216471 -0.042818576 0
-7.8835125 0.43619919 -0.044135511 0
-24.497976 -1.5050068 -0.060168922 0
-4.5608501 0.75223136 -0.042252898 0
-7.8720236 0.3172344 -0.044923455 0
-24.47117 -1.8634162 -0.062338412 0
-4.5508323 0.68123502 -0.0426054 0
-7.8665419 0.19727695 -0.04612717 0
-24.413267 -2.21787 -0.064019084 0
-4.5343704 0.61126161 -0.042469203 0
-7.8427668 0.079907417 -0.046432614 0
-24.344315 -2.5703723 -0.065579772 0
-4.5211377 0.54087335 -0.042710781 0
-7.8268061 -0.038688064 -0.047251403 0
-24.29579 -2.9261022 -0.067614973 0
-4.5213499 0.46796125 -0.044256717 0
-7.8055124 -0.15640986 -0.047870278 0
-24.239492 -3.2807503 -0.069594592 0
-4.4963489 0.39980245 -0.04361397 0
-7.7769661 -0.2726773 -0.048181236 0
-24.163307 -3.6316419 -0.071284205 0
-4.484458 0.32908344 -0.044247627 0
-7.7367916 -0.38625467 -0.047938347 0
-24.088223 -3.9826541 -0.073083788 0
-7.7073879 -0.50192356 -0.048374593 0
-24.010008 -4.3329911 -0.074912637 0
-4.4623833 0.18687344 -0.045949578 0
-7.697341 -0.62236452 -0.049976766 0
-23.939919 -4.6854782 -0.076991707 0
-7.6672039 -0.73805618 -0.050555021 0
-23.824387 -5.0264268 -0.078266472 0
-4.4077268 0.053020239 -0.045012385 0
-7.6384926 -0.85416269 -0.051303357 0
-23.74114 -5.3757186 -0.080267489 0
-7.6026716 -0.9682765 -0.0517416 0
-23.638046 -5.7195563 -0.081963658 0
-4.3762465 -0.087064505 -0.04657498 0
-7.5545516 -1.0784991 -0.051568896 0
-23.538893 -6.0645885 -0.083828926 0
-7.5369925 -1.1983325 -0.053225666 0
-23.42054 -6.4035749 -0.085394502 0
-4.3225684 -0.22023547 -0.046417952 0
-7.4918199 -1.3093095 -0.053396523 0
-23.315733 -6.747004 -0.087326348 0
-7.4551244 -1.4231296 -0.054143429 0
-23.202951 -7.0879455 -0.0891864 0
-4.2755775 -0.35545802 -0.047244549 0
-7.4079423 -1.5331328 -0.054371595 0
-23.074131 -7.423142 -0.090803385 0
-4.2482634 -0.42163956 -0.04742673 0
-7.366662 -1.6452813 -0.055031717 0
-22.939924 -7.756145 -0.092395276 0
-4.225781 -0.48975575 -0.048165768 0
-7.3159323 -1.7536461 -0.055224985 0
-22.808027 -8.0899887 -0.094124824 0
-7.2816339 -1.8688183 -0.056481302 0
-22.671949 -8.4221878 -0.095855713 0
-7.2262921 -1.9751012 -0.056576312 0
-22.524374 -8.7494488 -0.097428143 0
-4.1426115 -0.68794537 -0.049406111 0
-7.1691818 -2.0803332 -0.056647748 0
-22.378977 -9.0776386 -0.099137187 0
-4.1071897 -0.75044584 -0.049235404 0
-7.1131539 -2.1858301 -0.056867838 0
-22.2264 -9.4025593 -0.1007787 0
-7.0639763 -2.2945547 -0.057593584 0
-22.062717 -9.7220554 -0.10226202 0
-4.051403 -0.88271236 -0.050669342 0
-7.0428114 -2.4177787 -0.060147256 0
-21.904886 -10.044395 -0.1039654 0
-4.0208378 -0.94767165 -0.051258981 0
-6.968545 -2.5140154 -0.059509426 0
-21.738535 -10.362427 -0.10556644 0
-3.9817581 -1.0080667 -0.05106625 0
-6.9166503 -2.6218801 -0.060351223 0
-21.572107 -10.680492 -0.10725635 0
-3.9448614 -1.0695317 -0.051182151 0
-6.8498716 -2.7214975 -0.06034264 0
-21.396933 -10.993832 -0.10883474 0
-3.9083123 -1.1311445 -0.051421493 0
-6.7894697 -2.8245687 -0.060823977 0
-21.210764 -11.300793 -0.11024398 0
-3.8754568 -1.1949885 -0.05214116 0
-6.7417831 -2.9353609 -0.062219322 0
-21.019716 -11.604626 -0.11162376 0
-3.8383865 -1.256362 -0.052508771 0
-6.6616054 -3.0263591 -0.061595649 0
-20.852781 -11.923386 -0.11367428 0
-3.7979965 -1.3156292 -0.052609891 0
-6.6038594 -3.131196 -0.062523067 0
-20.653452 -12.222139 -0.11503446 0
-6.5467615 -3.2367568 -0.063593239 0
-20.450487 -12.51829 -0.11639154 0
-6.4819422 -3.3373899 -0.064244866 0
-20.250269 -12.816177 -0.11790502 0
-3.6761808 -1.4927547 -0.053368658 0
-6.4091325 -3.4324832 -0.06444487 0
-20.045347 -13.11087 -0.11939067 0
-3.6308584 -1.5483739 -0.053271502 0
-6.329546 -3.5224671 -0.06426087 0
-19.828711 -13.397118 -0.12066573 0
-3.5878153 -1.6055758 -0.053515881 0
-6.2719574 -3.6286259 -0.065689862 0
-19.624388 -13.69243 -0.1223489 0
-3.5473361 -1.6647685 -0.054145336 0
-6.1874084 -3.714509 -0.06532523 0
-19.398653 -13.971655 -0.12356299 0
-6.115685 -3.8101263 -0.06594938 0
-19.168606 -14.247169 -0.12474662 0
-3.4591136 -1.7776947 -0.054847211 0
-6.0424142 -3.9046063 -0.066556185 0
-18.945137 -14.527815 -0.12619466 0
-5.9696918 -3.9996815 -0.067297995 0
-18.722647 -14.809515 -0.12776303 0
-3.362679 -1.8837373 -0.054931402 0
-5.8973618 -4.0953279 -0.068167716 0
-18.478508 -15.072794 -0.12882125 0
-3.3164177 -1.9384089 -0.055341303 0
-5.8108749 -4.1785851 -0.068071574 0
-18.250374 -15.350029 -0.13041818 0
-3.275568 -1.9981613 -0.056518853 0
-5.7323461 -4.268856 -0.068660498 0
-18.008471 -15.615143 -0.13171649 0
-3.2192841 -2.0436585 -0.055867583 0
-5.6629238 -4.3679276 -0.070052087 0
-17.764606 -15.878485 -0.13304842 0
-3.1729236 -2.0984852 -0.056550354 0
-5.5565667 -4.4315796 -0.068653345 0
-17.498632 -16.120377 -0.13381279 0
-3.1177368 -2.1446388 -0.056191415 0
-5.4724317 -4.516326 -0.069068015 0
-17.259129 -16.388079 -0.13545597 0
-5.3887854 -4.6016159 -0.069613546 0
-17.003778 -16.640236 -0.13671464 0
-3.0138073 -2.2430873 -0.056555778 0
-5.3010688 -4.6827035 -0.069918633 0
-16.753773 -16.898268 -0.13823414 0
-2.9705229 -2.3018351 -0.058053017 0
-5.2190771 -4.7700353 -0.070792079 0
-16.485424 -17.136896 -0.13926971 0
-2.9182415 -2.3510413 -0.058439404 0
-5.1293287 -4.8490114 -0.071111143 0
-16.219917 -17.378551 -0.14048409 0
-2.8607159 -2.3942475 -0.058185101 0
-5.0376492 -4.9257259 -0.071351647 0
-15.954055 -17.620007 -0.14178038 0
-2.8071995 -2.4420388 -0.058579117 0
-4.9362154 -4.990696 -0.070816845 0
-15.672677 -17.843328 -0.14264971 0
-2.7443504 -2.4784412 -0.057711542 0
-4.8558025 -5.0808768 -0.072231233 0
-15.398259 -18.074818 -0.14384115 0
-2.6977024 -2.5348709 -0.059298545 0
-4.7601733 -5.1526461 -0.072381765 0
-15.105408 -18.283232 -0.14447981 0
-4.6730967 -5.2354598 -0.073414892 0
-14.82858 -18.511761 -0.14576769 0
-4.5665445 -5.2926702 -0.072710961 0
-14.533731 -18.716663 -0.14649689 0
-2.5173717 -2.652873 -0.058602393 0
-4.4744883 -5.3691306 -0.073465377 0
-14.247519 -18.933002 -0.14762861 0
-2.4591808 -2.6945601 -0.058828294 0
-4.3765812 -5.4376345 -0.073748231 0
-13.958186 -19.145283 -0.14873838 0
-2.4009356 -2.7362094 -0.059138179 0
-4.2835455 -5.5133238 -0.074614942 0
-13.658379 -19.342537 -0.14953595 0
-2.3422904 -2.7773428 -0.059477955 0
-4.1776481 -5.569993 -0.07426399 0
-13.366155 -19.551067 -0.15072191 0
-2.2865729 -2.8231864 -0.060418308 0
-4.0763927 -5.6333733 -0.074466884 0
-13.059037 -19.736952 -0.15140092 0
-3.9717231 -5.6911697 -0.07438606 0
-12.755306 -19.927876 -0.1523031 0
-2.1603651 -2.8916731 -0.060034692 0
-3.876677 -5.7647481 -0.075449646 0
-12.447271 -20.111765 -0.15311271 0
-2.104753 -2.9385858 -0.061334699 0
-3.7735448 -5.8251681 -0.075721681 0
-12.140258 -20.297413 -0.15405697 0
-3.3159847 -4.8742714 -0.15569419 0
-12.451572 -18.909542 -0.42194229 0
-1.4320379 -2.1113427 -0.10324699 0
-3.2147632 -4.9378815 -0.15576178 0
-12.155229 -19.113119 -0.4227457 0
-1.3663329 -2.1413267 -0.10236388 0
-3.1124673 -4.9997225 -0.15577751 0
-11.843238 -19.291859 -0.42265958 0
-1.3048981 -2.1780422 -0.10239601 0
-3.0171685 -5.0733624 -0.15682113 0
-11.539582 -19.484123 -0.4231934 0
-2.9095068 -5.126256 -0.15630305 0
-11.228838 -19.664629 -0.42335874 0
-2.8056078 -5.185503 -0.15637976 0
-10.915853 -19.841227 -0.42346352 0
-2.7000008 -5.2416487 -0.15630412 0
-10.598171 -20.00922 -0.42333084 0
-2.597239 -5.3032837 -0.15674108 0
-10.285542 -20.186892 -0.42365247 0
-2.4811015 -5.3385763 -0.15524739 0
-9.9593706 -20.33832 -0.42307788 0
