# .PCD v0.7 - Point Cloud Data file format
VERSION 0.7
FIELDS x y z intensity
SIZE 4 4 4 4
TYPE F F F F
COUNT 1 1 1 1
WIDTH 1437
HEIGHT 1
VIEWPOINT 0 0 0 1 0 0 0
POINTS 1437
DATA ascii
12.469009 -8.1898212 0.7370131 0
12.458738 -8.1808319 1.0726322 0
12.456791 -8.1857738 1.4101381 0
12.46127 -8.2015295 1.7516173 0
12.453058 -8.1961184 2.093235 0
12.443266 -8.188138 2.4375229 0
10.162287 -4.1877966 0.11561656 0
11.920426 -7.0277967 0.1287733 0
12.628222 -8.1774511 0.4018898 0
12.630123 -8.1885118 0.74048674 0
12.620254 -8.1805592 1.0790569 0
12.616521 -8.1825552 1.4191904 0
12.615877 -8.1896124 1.7622325 0
12.605244 -8.180542 2.1056414 0
12.60281 -8.1848564 2.455143 0
12.031082 -6.9792404 0.12939036 0
12.790072 -8.1730881 0.40249884 0
12.793193 -8.185813 0.74402159 0
12.7786 -8.1708107 1.0850672 0
12.771323 -8.1672821 1.4272699 0
12.775396 -8.1816149 1.7738681 0
12.774054 -8.1875286 2.1229248 0
12.769289 -8.1881561 2.4750147 0
10.285816 -4.1151042 0.11694768 0
12.124149 -6.9030771 0.13150293 0
12.949024 -8.1599903 0.40322101 0
12.951145 -8.1709003 0.74733961 0
12.954238 -8.1833134 1.0927978 0
12.937634 -8.1658335 1.437186 0
12.940231 -8.1775837 1.786566 0
12.938004 -8.1820717 2.1384294 0
12.935853 -8.1867695 2.4945335 0
12.224487 -6.8382134 0.13287595 0
13.132896 -8.1796246 0.40339696 0
13.122808 -8.1723642 0.75118172 0
13.123787 -8.1813946 1.0997983 0
13.108887 -8.1670637 1.4477659 0
13.109144 -8.1751127 1.7999942 0
13.098598 -8.1672878 2.1527157 0
13.099369 -8.17626 2.512629 0
12.332275 -6.7838202 0.13354522 0
13.291248 -8.1569157 0.4042176 0
13.292058 -8.165513 0.75491279 0
13.284683 -8.1624413 1.1058598 0
13.292568 -8.1812029 1.4601843 0
13.275105 -8.1637783 1.8125604 0
13.27105 -8.1655855 2.1702032 0
13.268229 -8.1692467 2.5323243 0
12.423813 -6.7061248 0.13548595 0
13.467402 -8.1552925 0.40467688 0
13.470905 -8.1674671 0.75899363 0
13.457802 -8.1566629 1.1130726 0
13.450699 -8.1541853 1.4683636 0
13.453535 -8.1655426 1.8276908 0
13.456308 -8.1768913 2.1909885 0
13.454109 -8.1814318 2.5575311 0
12.515503 -6.6290784 0.13730454 0
13.642742 -8.1476965 0.40520215 0
13.635325 -8.1449471 0.76251602 0
13.628522 -8.1430235 1.1199826 0
13.635283 -8.1593714 1.4805924 0
13.624903 -8.152709 1.8410736 0
13.623537 -8.1582441 2.2064528 0
13.619537 -8.1603165 2.5754125 0
10.577835 -3.9076433 0.12126786 0
12.615705 -6.5634375 0.13835722 0
13.824514 -8.1438427 0.40563992 0
13.816359 -8.140317 0.76664877 0
13.811649 -8.1412897 1.1280084 0
13.817757 -8.1564159 1.4923234 0
13.805153 -8.14715 1.8561709 0
13.796743 -8.1434174 2.2233648 0
13.798526 -8.153101 2.5975728 0
12.710245 -6.4902291 0.13976914 0
14.011679 -8.14184 0.40601939 0
14.006239 -8.1419668 0.77109003 0
13.995876 -8.1358633 1.1360527 0
13.994123 -8.1406898 1.502993 0
13.990972 -8.1437902 1.8722224 0
13.981944 -8.139492 2.2432561 0
13.987431 -8.1537161 2.6226285 0
12.805296 -6.4175916 0.14105582 0
14.203602 -8.1404953 0.4063586 0
14.204576 -8.148613 0.77581859 0
14.188612 -8.1359148 1.1448002 0
14.193511 -8.1489067 1.5169548 0
14.17312 -8.1307945 1.8873141 0
14.173912 -8.1388359 2.2646329 0
14.16852 -8.1393356 2.6448195 0
12.896831 -6.3405981 0.14251631 0
14.386917 -8.1235256 0.40690961 0
14.386992 -8.1304398 0.77995503 0
14.385086 -8.135006 1.153796 0
14.376005 -8.1310196 1.5282739 0
14.370523 -8.1313753 1.9052957 0
14.369596 -8.1372442 2.28666 0
10.795797 -3.7217278 0.12519711 0
12.982433 -6.2567439 0.14431038 0
14.58644 -8.1207523 0.40720779 0
14.575283 -8.1145573 0.78429252 0
14.58374 -8.1311226 1.1628978 0
14.589947 -8.1451263 1.5439899 0
14.569757 -8.128499 1.9233999 0
14.562195 -8.1265974 2.3076103 0
13.070982 -6.1765299 0.14579457 0
14.788775 -8.1156197 0.40750954 0
14.785036 -8.1180706 0.78937578 0
14.779123 -8.118083 1.1716292 0
14.776409 -8.121726 1.5556204 0
14.770029 -8.1212721 1.9414819 0
14.783512 -8.1433334 2.3354445 0
10.906276 -3.6304677 0.12643901 0
13.166988 -6.1045141 0.14667517 0
15.000099 -8.1147785 0.40771079 0
14.998903 -8.1200666 0.79458278 0
14.990231 -8.117177 1.181659 0
14.976286 -8.1085205 1.5690295 0
14.978079 -8.1171618 1.960848 0
14.97628 -8.1219292 2.3558738 0
10.961169 -3.5842657 0.12698036 0
13.245579 -6.0135155 0.14865965 0
15.209217 -8.1056671 0.40800452 0
15.206432 -8.1092291 0.79955196 0
15.198563 -8.1073895 1.1913602 0
15.196671 -8.1119356 1.5851254 0
15.19524 -8.1170216 1.9817102 0
15.194866 -8.1233006 2.3823404 0
11.013069 -3.534812 0.12779161 0
13.340997 -5.9403963 0.14942059 0
15.432125 -8.105176 0.40812859 0
15.425432 -8.104722 0.80490232 0
15.414284 -8.0996609 1.2016121 0
15.423956 -8.1161747 1.6019732 0
15.408257 -8.1064596 2.001555 0
15.400648 -8.1051731 2.4054317 0
11.067473 -3.4878452 0.1282278 0
13.418608 -5.8488541 0.15127128 0
15.586472 -8.0295916 0.40937167 0
15.578861 -8.0282946 0.8080073 0
15.56806 -8.0237932 1.2066052 0
15.577873 -8.0400476 1.6088437 0
15.552775 -8.0212107 2.0086198 0
15.573163 -8.0482359 2.4205103 0
11.113274 -3.4322922 0.12955734 0
13.498015 -5.7594638 0.15290153 0
15.574928 -7.7899723 0.41310108 0
15.55989 -7.7813997 0.80531394 0
15.554782 -7.7825232 1.1978389 0
15.561919 -7.7956414 1.5934024 0
15.558652 -7.798635 1.9906969 0
15.550935 -7.7973266 2.390563 0
11.159952 -3.3778052 0.13068464 0
13.5952 -5.6871319 0.15331867 0
15.576534 -7.5697398 0.41649115 0
15.5652 -7.5648808 0.80353993 0
15.565535 -7.5710964 1.1913917 0
15.55466 -7.5666943 1.5797116 0
15.553939 -7.5719733 1.9716552 0
15.545413 -7.5698814 2.3656089 0
11.219812 -3.3355823 0.13027304 0
13.676517 -5.5993872 0.15465635 0
15.564694 -7.3429718 0.4199428 0
15.553327 -7.3381715 0.80128288 0
15.565361 -7.3549571 1.184356 0
15.551066 -7.3474803 1.5670527 0
15.53334 -7.3368511 1.9505882 0
15.541782 -7.3504543 2.3421049 0
13.744879 -5.5000405 0.1566909 0
15.554553 -7.123961 0.42323765 0
15.559278 -7.1336684 0.79970753 0
15.541305 -7.1230469 1.1757081 0
15.548191 -7.1347284 1.5550073 0
15.53159 -7.1253748 1.9336287 0
15.52502 -7.1250648 2.316638 0
11.312266 -3.2256665 0.13218451 0
13.828667 -5.4146781 0.15769279 0
15.557018 -6.9217377 0.42623773 0
15.553645 -6.9240913 0.79783201 0
15.547404 -6.923955 1.1697731 0
15.537357 -6.9205179 1.5424559 0
15.53434 -6.9232378 1.918144 0
15.525176 -6.9206419 2.2958822 0
11.351221 -3.1646585 0.13376105 0
13.899142 -5.3178072 0.1593976 0
15.555244 -6.7208376 0.42918277 0
15.535129 -6.7089386 0.79561728 0
15.545564 -6.7228746 1.1634765 0
15.531178 -6.7158322 1.530977 0
15.534824 -6.7240887 1.9029195 0
15.524845 -6.7208471 2.2758732 0
15.516023 -6.7186375 2.6528084 0
13.981102 -5.2306728 0.16033635 0
15.5443 -6.5172601 0.43213624 0
15.544614 -6.5224476 0.79439425 0
15.526924 -6.5128531 1.1561356 0
15.518112 -6.510561 1.5191084 0
15.525767 -6.5218468 1.886709 0
15.513659 -6.5169134 2.2543445 0
15.508107 -6.5174294 2.6271198 0
11.454696 -3.0639975 0.13398293 0
14.05439 -5.1363368 0.16169077 0
15.531421 -6.3171773 0.43500414 0
15.529795 -6.3206387 0.79245549 0
15.519094 -6.3168693 1.1499008 0
15.529706 -6.3301291 1.5107027 0
15.530377 -6.3354931 1.8734167 0
15.505863 -6.3207598 2.2343674 0
15.51203 -6.330616 2.6055055 0
11.489405 -3.000035 0.13569751 0
14.142132 -5.0532274 0.16214162 0
15.528228 -6.1294641 0.43764973 0
15.524767 -6.1313863 0.79090548 0
15.525018 -6.1361895 1.1449625 0
15.520697 -6.1374712 1.5001841 0
15.523086 -6.1439886 1.8587114 0
15.505852 -6.1353149 2.21681 0
15.496354 -6.13269 2.579757 0
14.209257 -4.9539819 0.16366833 0
15.525281 -5.9461384 0.44019747 0
15.516314 -5.9438481 0.78931397 0
15.518371 -5.949851 1.1392909 0
15.518413 -5.9543605 1.4908774 0
15.509109 -5.9518633 1.8434825 0
15.505917 -5.9540038 2.1999793 0
15.491421 -5.9476705 2.5576968 0
14.279212 -4.8570061 0.16494352 0
15.515347 -5.7617021 0.44273442 0
15.52478 -5.7728848 0.78832638 0
15.517756 -5.7720737 1.1342969 0
15.51134 -5.7717195 1.4813783 0
15.497437 -5.7659163 1.8291969 0
15.507092 -5.7773767 2.1840596 0
15.496751 -5.77426 2.5390821 0
11.61368 -2.8246839 0.13822383 0
14.349129 -4.7600236 0.16613042 0
15.521227 -5.5925407 0.44500434 0
15.516392 -5.5932846 0.78686416 0
15.512146 -5.5944524 1.1291392 0
15.499594 -5.5897474 1.4716995 0
15.499714 -5.594048 1.8176947 0
15.487083 -5.5893393 2.1644511 0
15.486942 -5.5935411 2.5174756 0
14.410109 -4.656877 0.16770443 0
15.509682 -5.4146466 0.44738537 0
15.505297 -5.4156666 0.78537774 0
15.494728 -5.4124427 1.1233141 0
15.501804 -5.4213591 1.4640117 0
15.492837 -5.4192719 1.8052083 0
15.489929 -5.4213877 2.1501818 0
15.491693 -5.4267712 2.5002794 0
14.482431 -4.5615449 0.16858405 0
15.503292 -5.2439704 0.44962728 0
15.505074 -5.2490559 0.78429174 0
15.498452 -5.2485557 1.1192511 0
15.489438 -5.2464714 1.4549612 0
15.488317 -5.2496719 1.7935772 0
15.494136 -5.2575436 2.1367772 0
15.482913 -5.2540846 2.4804947 0
14.541258 -4.4572659 0.17008215 0
15.498993 -5.0780406 0.45176932 0
15.512119 -5.0902863 0.78348708 0
15.492804 -5.0816059 1.1146851 0
15.492228 -5.0850334 1.4479861 0
15.481205 -5.0817342 1.7819974 0
15.472058 -5.0796733 2.118696 0
15.477077 -5.0868258 2.4621749 0
11.770027 -2.5848417 0.14121303 0
14.613536 -4.3616195 0.17079401 0
15.492098 -4.9136467 0.45386332 0
15.487925 -4.9146938 0.78176141 0
15.492638 -4.9213042 1.1106987 0
15.492456 -4.9248729 1.4410173 0
15.484117 -4.9233565 1.7724237 0
15.468814 -4.9175029 2.1049688 0
15.472671 -4.9237018 2.4449077 0
11.812907 -2.5271411 0.1413905 0
14.679413 -4.2617483 0.17175138 0
15.492205 -4.7565961 0.45581597 0
15.489647 -4.7585893 0.78089511 0
15.493782 -4.7646465 1.1069772 0
15.484562 -4.7626247 1.4334219 0
15.48298 -4.7652555 1.7626308 0
15.469972 -4.7609825 2.0926507 0
15.470792 -4.7651434 2.4289215 0
11.849077 -2.4652894 0.14209765 0
14.744218 -4.1610942 0.17267746 0
15.481333 -4.5958085 0.45780736 0
15.489113 -4.6037979 0.7800076 0
15.473698 -4.5981998 1.1019031 0
15.487756 -4.6099005 1.4273641 0
15.483473 -4.610867 1.7534887 0
15.467285 -4.6048665 2.0800967 0
15.455685 -4.601593 2.4104493 0
11.888018 -2.4050047 0.14246655 0
14.795197 -4.0524464 0.17420304 0
15.477613 -4.4420543 0.45966274 0
15.492863 -4.4540234 0.7792992 0
15.469921 -4.444346 1.0981631 0
15.485218 -4.4563746 1.4209341 0
15.46806 -4.4500012 1.7423106 0
15.458328 -4.4478674 2.0668378 0
15.459455 -4.4519439 2.3970771 0
14.840672 -3.9410863 0.17589965 0
15.464342 -4.2856474 0.46154201 0
15.477788 -4.2962351 0.77805841 0
15.479967 -4.3006601 1.0955553 0
15.477611 -4.3026137 1.4142089 0
15.458313 -4.2952814 1.7323925 0
15.47753 -4.3091373 2.059485 0
15.458725 -4.3021321 2.3832359 0
14.913961 -3.8448756 0.17614722 0
15.479671 -4.1471858 0.46310103 0
15.466927 -4.1435628 0.77699363 0
15.463966 -4.1451225 1.0912602 0
15.462271 -4.1473641 1.406898 0
15.471514 -4.1554337 1.7262952 0
15.457626 -4.1512537 2.0450978 0
15.453964 -4.1525373 2.3690372 0
11.98345 -2.2123001 0.14494336 0
14.962417 -3.7353466 0.17751315 0
15.473001 -3.9991288 0.4648006 0
15.480985 -4.0062418 0.77673376 0
15.468519 -4.0029001 1.0885553 0
15.461014 -4.0021043 1.4013919 0
15.454527 -4.0018458 1.7160197 0
15.450775 -4.0030155 2.0336819 0
15.468334 -4.0151601 2.3598042 0
15.449313 -4.0085707 2.6821971 0
15.018367 -3.6297235 0.17842802 0
15.468967 -3.8547115 0.46641958 0
15.464186 -3.8552876 0.77557462 0
15.465302 -3.8587799 1.0854468 0
15.465542 -3.8618538 1.3967531 0
15.449067 -3.8566804 1.7078196 0
15.444893 -3.8576131 2.0229003 0
15.458233 -3.867255 2.3454776 0
15.439428 -3.8610148 2.6651897 0
12.054449 -2.0875263 0.14550528 0
15.072104 -3.5229392 0.17936027 0
15.459784 -3.7099843 0.46802616 0
15.467789 -3.7166374 0.7750777 0
15.462137 -3.7168 1.0824792 0
15.451781 -3.7147293 1.390363 0
15.458135 -3.7206402 1.7020935 0
15.459743 -3.7243199 2.0164273 0
15.455395 -3.7251899 2.3333492 0
15.437065 -3.7194169 2.6508489 0
12.078697 -2.0197599 0.1466184 0
15.130182 -3.4180574 0.18000287 0
15.475193 -3.578738 0.46937737 0
15.463549 -3.5761652 0.77438235 0
15.455783 -3.5753686 1.0794257 0
15.461295 -3.5806749 1.3867128 0
15.452431 -3.5793998 1.6945053 0
15.456426 -3.5840588 2.0069571 0
15.428471 -3.5740519 2.3163028 0
15.433836 -3.5794113 2.6368854 0
15.170882 -3.305234 0.18136457 0
15.451342 -3.4314561 0.47099617 0
15.453916 -3.4352648 0.77356309 0
15.454126 -3.4380367 1.0768249 0
15.450779 -3.43925 1.3811281 0
15.442643 -3.4383616 1.6866392 0
15.437708 -3.4389105 1.995049 0
15.434721 -3.4403527 2.3072546 0
15.427837 -3.4401047 2.6227839 0
15.217147 -3.1950238 0.18237591 0
15.450829 -3.2965915 0.47237635 0
15.444887 -3.2966628 0.77280068 0
15.437102 -3.2959538 1.0733019 0
15.439834 -3.2997191 1.3757198 0
15.45578 -3.3091238 1.6824057 0
15.429112 -3.3004308 1.9854245 0
15.427025 -3.3022199 2.2955565 0
15.420438 -3.3021288 2.6088984 0
12.165665 -1.8232547 0.14819849 0
15.265711 -3.0857611 0.18319321 0
15.451189 -3.1637232 0.47370249 0
15.443361 -3.163048 0.77230167 0
15.443942 -3.1658015 1.0715284 0
15.43861 -3.1661534 1.3715565 0
15.433723 -3.1667023 1.6733727 0
15.429934 -3.167721 1.9779121 0
15.435739 -3.1726928 2.2879782 0
15.433629 -3.1744661 2.6009655 0
12.191652 -1.7564914 0.14879698 0
15.297789 -2.9699488 0.18466449 0
15.449485 -3.0315778 0.4749983 0
15.453915 -3.0357459 0.77220118 0
15.453299 -3.0379486 1.0700388 0
15.440857 -3.035533 1.3679596 0
15.438189 -3.0369551 1.6684557 0
15.431152 -3.0366876 1.970836 0
15.422913 -3.0359731 2.2760792 0
15.412893 -3.0345912 2.5847132 0
15.348902 -2.8616252 0.18518931 0
15.443908 -2.8995008 0.47627729 0
15.437292 -2.899385 0.77131981 0
15.439321 -2.902509 1.0670877 0
15.426317 -2.9000077 1.3627944 0
15.428152 -2.9030852 1.6617391 0
15.430876 -2.9065201 1.9638439 0
15.42151 -2.9054408 2.2671547 0
15.416958 -2.906203 2.5754528 0
15.388978 -2.749054 0.18611923 0
15.446533 -2.771925 0.47745275 0
15.431989 -2.7690046 0.77081293 0
15.427179 -2.7695711 1.0643783 0
15.421832 -2.7699516 1.3588821 0
15.423922 -2.7730157 1.6561279 0
15.410845 -2.7706535 1.9536442 0
15.419168 -2.7760081 2.2584558 0
15.407008 -2.7740295 2.5630839 0
15.430099 -2.6368444 0.18691361 0
15.454174 -2.6472883 0.47855178 0
15.435205 -2.6430199 0.77059466 0
15.434261 -2.6449172 1.0630692 0
15.43259 -2.6465752 1.3567442 0
15.428778 -2.6475136 1.6520692 0
15.410948 -2.6436596 1.9474238 0
15.411741 -2.6462204 2.2490735 0
15.407756 -2.6471725 2.5539763 0
12.291419 -1.4877857 0.15064055 0
15.439072 -2.5140867 0.18902153 0
15.446091 -2.518523 0.47971982 0
15.427087 -2.5144744 0.77007055 0
15.42677 -2.5165205 1.0608923 0
15.427862 -2.5190368 1.3531742 0
15.399252 -2.5118556 1.6434176 0
15.40279 -2.5152011 1.9400605 0
15.403986 -2.5178077 2.2400422 0
15.412273 -2.5227726 2.5463142 0
12.310836 -1.4187571 0.15132344 0
15.436289 -2.3885696 0.19153175 0
15.429463 -2.3885336 0.48090306 0
15.428461 -2.390301 0.76986241 0
15.434425 -2.3942368 1.05983 0
15.421886 -2.3924317 1.349656 0
15.419117 -2.3936749 1.6419793 0
15.405087 -2.3914294 1.9348911 0
15.403151 -2.3929722 2.2329159 0
15.41094 -2.3975799 2.537631 0
12.335487 -1.3513238 0.15149876 0
15.440348 -2.2662537 0.1936366 0
15.435939 -2.2669711 0.48189068 0
15.437593 -2.2694736 0.76991701 0
15.421192 -2.2666543 1.0574827 0
15.425837 -2.27005 1.3473372 0
15.394804 -2.262918 1.6345885 0
15.409575 -2.2693391 1.9304235 0
15.411722 -2.2720549 2.2282016 0
15.406998 -2.2727656 2.5287561 0
15.43469 -2.1421392 0.1960516 0
15.42345 -2.1409531 0.48296461 0
15.409504 -2.1390057 0.76889396 0
15.410364 -2.1411941 1.0553997 0
15.41243 -2.1437294 1.3434054 0
15.401973 -2.1427724 1.6318481 0
15.408341 -2.1465456 1.9252517 0
15.411623 -2.1494799 2.2220011 0
15.388508 -2.1450324 2.5166767 0
12.366392 -1.211175 0.15304005 0
15.431549 -2.0198348 0.19825178 0
15.429894 -2.0212858 0.48387817 0
15.423662 -2.0215273 0.76916003 0
15.406073 -2.0187697 1.0538499 0
15.410004 -2.0217025 1.3407722 0
15.390492 -2.0184464 1.6267462 0
15.400595 -2.0230436 1.9192413 0
15.387842 -2.0216088 2.2111259 0
15.402997 -2.0276029 2.5133624 0
15.433779 -1.8998717 0.20012069 0
15.426247 -1.8998269 0.48481986 0
15.417514 -1.8994795 0.76885194 0
15.407868 -1.8989048 1.0527987 0
15.414234 -1.9023228 1.3389834 0
15.41226 -1.9036769 1.6264895 0
15.402349 -1.903067 1.9152048 0
15.388069 -1.9013827 2.2057559 0
15.396368 -1.9053661 2.5051742 0
12.409454 -1.0741985 0.15326658 0
15.416571 -1.7761641 0.20270574 0
15.414656 -1.7774796 0.48577383 0
15.411995 -1.7786198 0.7685926 0
15.403149 -1.7783166 1.0514147 0
15.393451 -1.7778178 1.3348081 0
15.392349 -1.7793409 1.6206872 0
15.393201 -1.781338 1.9095547 0
15.393982 -1.7833407 2.2019527 0
15.388437 -1.7838845 2.4971027 0
12.416658 -1.0023668 0.15436229 0
15.42852 -1.6601269 0.20396632 0
15.406067 -1.6569326 0.48667243 0
15.393984 -1.655993 0.76799148 0
15.407635 -1.6606797 1.0507288 0
15.387892 -1.6580701 1.3323473 0
15.406161 -1.6637933 1.6197683 0
15.392336 -1.6625013 1.9056473 0
15.380653 -1.6616944 2.1944313 0
15.374142 -1.6620444 2.4878821 0
15.423209 -1.5409659 0.2058517 0
15.419128 -1.5417829 0.4874073 0
15.402084 -1.5399594 0.76819587 0
15.386696 -1.5384698 1.0484715 0
15.395056 -1.5418237 1.3313339 0
15.392775 -1.5430211 1.6153231 0
15.394865 -1.5451264 1.9026158 0
15.40169 -1.5482216 2.1945195 0
15.399121 -1.5494207 2.4888477 0
15.415832 -1.4222574 0.20772463 0
15.397651 -1.4204196 0.48831204 0
15.402075 -1.422838 0.76818806 0
15.395082 -1.4231058 1.0482252 0
15.391008 -1.4239296 1.329338 0
15.409101 -1.4289583 1.6151775 0
15.397699 -1.4284215 1.8999165 0
15.393983 -1.4293571 2.1888876 0
15.388486 -1.4299769 2.481374 0
12.462247 -0.79234451 0.1552456 0
15.413264 -1.3052322 0.20930234 0
15.408966 -1.3060173 0.48899245 0
15.401669 -1.3062788 0.76819712 0
15.410065 -1.3092722 1.0484977 0
15.390091 -1.3073324 1.3278115 0
15.385 -1.3079917 1.6097054 0
15.37743 -1.3082308 1.8934929 0
15.375271 -1.3094319 2.1812954 0
15.378164 -1.3115396 2.4743965 0
12.469509 -0.72094417 0.15596986 0
15.402081 -1.1874918 0.21113935 0
15.415585 -1.1911125 0.48966914 0
15.40304 -1.1905923 0.76828742 0
15.3943 -1.1906769 1.0468538 0
15.38999 -1.1914712 1.3265176 0
15.367126 -1.1893114 1.6053081 0
15.379263 -1.1927536 1.891176 0
15.393112 -1.196493 2.1817102 0
15.354681 -1.1918793 2.4645853 0
15.395544 -1.0712742 0.21269128 0
15.38777 -1.0715708 0.49050596 0
15.376259 -1.0713243 0.76756883 0
15.390079 -1.0747416 1.0460517 0
15.393354 -1.0766429 1.3257213 0
15.372179 -1.0750085 1.6042544 0
15.374828 -1.0768404 1.8880477 0
15.380504 -1.0791308 2.1760795 0
15.386187 -1.0814458 2.4687233 0
15.398338 -0.95693082 0.21377122 0
15.391146 -0.95736319 0.49113676 0
15.381416 -0.95746309 0.76782787 0
15.392733 -0.96030015 1.0457846 0
15.38447 -0.96059722 1.3238403 0
15.387589 -0.96238548 1.6048158 0
15.3761 -0.96227986 1.8861717 0
15.360115 -0.96159917 2.1691642 0
15.376837 -0.96521682 2.4631896 0
12.509885 -0.50945544 0.15618712 0
15.396089 -0.8423506 0.21496701 0
15.391823 -0.84317142 0.49175188 0
15.382379 -0.84339285 0.76798999 0
15.384399 -0.84493852 1.0448902 0
15.371895 -0.84481031 1.3217368 0
15.373737 -0.84634948 1.6015977 0
15.375822 -0.84793007 1.8842944 0
15.386469 -0.85052276 2.1723266 0
15.368891 -0.84985346 2.458395 0
12.507663 -0.43711817 0.15726951 0
15.379681 -0.72678745 0.21664578 0
15.374695 -0.72754258 0.49243122 0
15.373474 -0.72867548 0.76788616 0
15.387058 -0.73130673 1.0447965 0
15.36936 -0.73078173 1.3207872 0
15.37011 -0.73213029 1.5999762 0
15.369232 -0.73332596 1.8815958 0
15.359932 -0.73367995 2.1647913 0
15.357424 -0.73474181 2.4531276 0
15.393164 -0.61460054 0.2170288 0
15.382252 -0.6148665 0.4929491 0
15.380235 -0.61589766 0.76827657 0
15.380957 -0.61716813 1.0442195 0
15.371483 -0.61755961 1.320448 0
15.377392 -0.61929357 1.6000384 0
15.377958 -0.62057596 1.881789 0
15.359871 -0.62024611 2.1630936 0
15.343992 -0.62012166 2.4477677 0
15.377347 -0.50020218 0.21850526 0
15.375211 -0.50120264 0.49351382 0
15.37377 -0.50225222 0.76830041 0
15.376745 -0.50362271 1.0438504 0
15.372617 -0.50448543 1.3201524 0
15.363022 -0.50495869 1.5973632 0
15.366725 -0.50640625 1.8788168 0
15.362392 -0.50728416 2.1622505 0
15.357687 -0.50815088 2.4494243 0
12.528158 -0.22316782 0.15792066 0
15.387671 -0.38799083 0.21884462 0
15.388908 -0.38916695 0.49394268 0
15.369137 -0.38913131 0.76840633 0
15.362333 -0.38984221 1.0429039 0
15.375926 -0.3917383 1.3202164 0
15.359893 -0.39192474 1.5964139 0
15.359432 -0.39302433 1.876781 0
15.361866 -0.39430618 2.1610911 0
15.36183 -0.3954609 2.4491191 0
12.538042 -0.15186447 0.15773046 0
15.390102 -0.27532899 0.21941587 0
15.381151 -0.27599734 0.49445239 0
15.356854 -0.275998 0.76831084 0
15.371065 -0.27766776 1.0435444 0
15.363123 -0.27838045 1.318809 0
15.355778 -0.27912456 1.5955302 0
15.373604 -0.28098083 1.8786795 0
15.360163 -0.28147924 2.1600032 0
15.343546 -0.28184956 2.4437108 0
12.536592 -0.080042183 0.1583015 0
15.364986 -0.16194506 0.22100222 0
15.377552 -0.16330923 0.49491185 0
15.365557 -0.16396439 0.76887053 0
15.372547 -0.16517128 1.0437987 0
15.361973 -0.16587095 1.3187094 0
15.365345 -0.16698459 1.5966989 0
15.353421 -0.16765745 1.8749498 0
15.347375 -0.16851369 2.1569309 0
15.34684 -0.16954748 2.4439478 0
12.53905 -0.0083762109 0.15848953 0
15.36512 -0.04973679 0.22149396 0
15.364983 -0.050686754 0.49538669 0
15.359419 -0.051556818 0.76901376 0
15.369068 -0.052652419 1.0438149 0
15.362163 -0.053507946 1.3188846 0
15.36044 -0.054446407 1.596104 0
15.338344 -0.055084869 1.8723503 0
15.351049 -0.056261234 2.1575878 0
15.340204 -0.057092354 2.4421329 0
15.370579 0.062428281 0.22168946 0
15.347346 0.061530374 0.49585679 0
15.358947 0.060626142 0.76935446 0
15.360516 0.059721962 1.0435851 0
15.335396 0.058828648 1.3165004 0
15.348119 0.057908639 1.5947013 0
15.342239 0.056992017 1.8732549 0
15.342057 0.056060437 2.1559303 0
15.348528 0.055108294 2.4443424 0
15.372231 0.17469501 0.22195268 0
15.370206 0.17381227 0.49610135 0
15.362826 0.17285553 0.76985401 0
15.360648 0.17197064 1.044004 0
15.341705 0.1708518 1.3175691 0
15.347124 0.1700635 1.5950311 0
15.336227 0.16904496 1.872717 0
15.344198 0.16827166 2.1568949 0
15.325764 0.16713226 2.4393325 0
12.538115 0.206746 0.15913802 0
15.36525 0.28680837 0.22247511 0
15.364763 0.28599018 0.4964557 0
15.360785 0.28507355 0.77020377 0
15.354708 0.28409693 1.0441117 0
15.354593 0.28328532 1.3194392 0
15.352608 0.28241575 1.5964376 0
15.344876 0.28137863 1.8749466 0
15.331308 0.2801711 2.1550524 0
15.346973 0.27976328 2.4454346 0
12.535324 0.27840704 0.15936011 0
15.356342 0.39873075 0.22298965 0
15.361662 0.39820355 0.49677071 0
15.343184 0.39666098 0.77011204 0
15.352911 0.39632016 1.0445738 0
15.352734 0.39555365 1.319972 0
15.348192 0.39459699 1.5966988 0
15.334036 0.39322799 1.8740897 0
15.319735 0.39184624 2.1537938 0
15.341374 0.39196718 2.4453607 0
15.367041 0.51165605 0.22264153 0
15.34046 0.50943226 0.49714333 0
15.341052 0.50876206 0.77051473 0
15.348084 0.50845665 1.0449224 0
15.339218 0.50724363 1.3194748 0
15.3358 0.50633615 1.5960733 0
15.345565 0.50616914 1.8773274 0
15.337207 0.50496709 2.1588855 0
15.315706 0.50301427 2.440748 0
15.356298 0.62353873 0.22306067 0
15.350065 0.6224367 0.49734241 0
15.336792 0.6208334 0.77088141 0
15.335645 0.62009531 1.044858 0
15.32653 0.61878735 1.3191999 0
15.35297 0.62000442 1.5996674 0
15.337862 0.61825985 1.8775204 0
15.334267 0.61732638 2.1600506 0
15.327805 0.61618066 2.445749 0
12.525373 0.49341989 0.15960607 0
15.342276 0.73506105 0.22352597 0
15.336734 0.73397851 0.49762145 0
15.337429 0.73343205 0.77142537 0
15.342921 0.73329532 1.0461681 0
15.342079 0.73261267 1.3219098 0
15.330454 0.73100352 1.5980592 0
15.330807 0.73041385 1.8780799 0
15.323066 0.7291258 2.1598096 0
15.319612 0.72819549 2.446157 0
12.522795 0.56528854 0.15945265 0
15.363321 0.84997505 0.22251362 0
15.334501 0.84652585 0.49782076 0
15.343246 0.84684521 0.7721566 0
15.326832 0.8446427 1.0460333 0
15.335562 0.84495616 1.322541 0
15.337172 0.8445524 1.6006341 0
15.316793 0.84194601 1.8776963 0
15.325402 0.84223002 2.1627069 0
15.318007 0.84090763 2.4485559 0
15.349456 0.96181393 0.22280347 0
15.351835 0.96157795 0.49790204 0
15.321018 0.95753449 0.77206224 0
15.332611 0.95835537 1.0474193 0
15.34784 0.95958894 1.3252157 0
15.337931 0.95793849 1.6026005 0
15.3211 0.95549262 1.8807306 0
15.330168 0.9560045 2.1664352 0
15.316462 0.95390463 2.45135 0
12.489449 0.70580667 0.1609917 0
15.351252 1.0756491 0.22238535 0
15.331984 1.0726984 0.49812743 0
15.324126 1.0712246 0.77276999 0
15.333158 1.0719323 1.04855 0
15.320648 1.0698557 1.3240421 0
15.314764 1.0686322 1.6014941 0
15.304731 1.0668703 1.8804535 0
15.30839 1.0668687 2.1649299 0
15.304565 1.0658957 2.4519756 0
15.333716 1.1871756 0.22265184 0
15.349525 1.1890408 0.49815291 0
15.330688 1.1859221 0.77361465 0
15.319094 1.1838459 1.048805 0
15.308054 1.1818484 1.3244867 0
15.312235 1.1820359 1.6034148 0
15.308009 1.1810117 1.8838375 0
15.305721 1.1802613 2.1677446 0
15.303298 1.1794853 2.4556019 0
15.338995 1.3022764 0.2219227 0
15.346161 1.3030528 0.49824667 0
15.322009 1.2988664 0.77402234 0
15.320069 1.2982 1.050141 0
15.32378 1.2984266 1.3279569 0
15.315463 1.2967467 1.6063346 0
15.318653 1.2968849 1.8887725 0
15.328274 1.2980361 2.1761932 0
15.302976 1.2936577 2.4598525 0
12.459776 0.91854686 0.16110444 0
15.339001 1.4171383 0.22131628 0
15.333273 1.415837 0.49835587 0
15.32501 1.4140977 0.77482045 0
15.315954 1.4122208 1.0512301 0
15.325493 1.4135619 1.3301558 0
15.309418 1.4104675 1.6081877 0
15.316856 1.4114397 1.8918208 0
15.313217 1.4104912 2.1770649 0
15.299552 1.4078045 2.4637277 0
12.447821 0.98916966 0.16111809 0
15.333628 1.5315598 0.22083747 0
15.335907 1.5317302 0.49836588 0
15.324472 1.5293231 0.77554137 0
15.313795 1.5270584 1.0525401 0
15.323479 1.5286188 1.3321267 0
15.311443 1.5260968 1.6113666 0
15.318869 1.5272282 1.8958077 0
15.313677 1.5259864 2.1815391 0
15.301648 1.523458 2.4693727 0
12.429655 1.0585703 0.16151339 0
15.33503 1.6478183 0.219998 0
15.329147 1.6464186 0.49839047 0
15.310812 1.6424934 0.77588713 0
15.312706 1.6426708 1.0540138 0
15.308573 1.6416253 1.3329283 0
15.312105 1.6421328 1.614574 0
15.319 1.6433191 1.8997459 0
15.316573 1.6426138 2.1868727 0
15.286145 1.6362309 2.4710338 0
12.421812 1.1301023 0.16103452 0
15.315596 1.7602562 0.21990812 0
15.328459 1.7629029 0.49835873 0
15.302036 1.7569945 0.77641535 0
15.318335 1.7603886 1.0560319 0
15.303702 1.7570472 1.3349104 0
15.302343 1.7565949 1.6165503 0
15.311331 1.7583933 1.9025962 0
15.297121 1.7551407 2.1878018 0
15.302443 1.7561367 2.4810419 0
15.324489 1.8794342 0.21858585 0
15.309795 1.8759106 0.49838048 0
15.312078 1.8763402 0.77756357 0
15.318491 1.8777307 1.057781 0
15.304232 1.8743083 1.337606 0
15.307742 1.8750219 1.6208574 0
15.305102 1.8743031 1.9059789 0
15.289808 1.870638 2.1916473 0
15.300469 1.8730119 2.4869056 0
12.387358 1.2692106 0.16123548 0
14.915895 1.8961456 0.23411018 0
14.922677 1.8977803 0.50006664 0
14.928232 1.899111 0.76638901 0
14.909622 1.8944498 1.0320482 0
14.930837 1.8996627 1.3017093 0
14.907726 1.8938857 1.5685922 0
14.930435 1.8994678 1.8444571 0
14.911566 1.8947414 2.1163883 0
14.918829 1.8964927 2.3975132 0
14.916502 1.895866 2.6812227 0
14.450758 1.8863626 0.25196385 0
14.443977 1.884582 0.50215781 0
14.44597 1.8851103 0.75206059 0
14.448179 1.8856958 1.0026543 0
14.45541 1.8876032 1.2550786 0
14.433484 1.8818363 1.5057063 0
14.41805 1.8777779 1.7582877 0
14.442625 1.8842503 2.0213969 0
14.431424 1.8813064 2.2810936 0
14.425969 1.8798748 2.546124 0
14.037437 1.8775812 0.26775706 0
14.032671 1.8763032 0.50392723 0
14.01829 1.8723459 0.73937535 0
14.032727 1.8764173 0.97623986 0
14.016657 1.8719903 1.2120538 0
14.023371 1.8739103 1.4515785 0
14.022244 1.873647 1.6924814 0
14.0068 1.869395 1.9331198 0
14.017488 1.8724246 2.1827865 0
14.013358 1.8713266 2.4332008 0
12.335502 1.4779019 0.16087672 0
13.667265 1.869544 0.2818346 0
13.643444 1.86263 0.50558639 0
13.645935 1.8634527 0.72837144 0
13.65279 1.8655585 0.95211178 0
13.650846 1.8650775 1.1764566 0
13.638678 1.8615901 1.4007934 0
13.636963 1.8611774 1.6282539 0
13.644514 1.8634915 1.8603436 0
13.633226 1.8602659 2.0915799 0
13.625484 1.8580844 2.3270161 0
13.316772 1.8568972 0.29515472 0
13.322567 1.8588185 0.50692111 0
13.320836 1.8584096 0.7188077 0
13.312965 1.8560995 0.93060064 0
13.316994 1.8574752 1.1440427 0
13.32254 1.8593218 1.3595036 0
13.303854 1.8536634 1.5730746 0
13.292019 1.8501283 1.7893417 0
13.299719 1.8526468 2.0129049 0
13.286934 1.8488213 2.2348452 0
13.016104 1.8502772 0.30646938 0
13.014228 1.8498276 0.50819242 0
13.005054 1.8470032 0.70948446 0
13.003262 1.8465807 0.91104168 0
12.993273 1.8434908 1.1125267 0
12.996137 1.8445854 1.3165369 0
12.993242 1.8438073 1.5216691 0
12.99385 1.8441713 1.7298316 0
12.988787 1.8426914 1.9396288 0
12.991648 1.843794 2.1550179 0
12.264907 1.6810256 0.16116631 0
12.738804 1.8429281 0.31686115 0
12.740116 1.8435678 0.50929946 0
12.746843 1.8460566 0.70195258 0
12.731279 1.8409355 0.89397603 0
12.733168 1.8417737 1.0875866 0
12.715744 1.8360187 1.2799313 0
12.732307 1.8418705 1.4789901 0
12.70747 1.8335862 1.6725907 0
12.721376 1.8385369 1.8771937 0
12.711222 1.8352723 2.0791936 0
12.23946 1.7479829 0.1612367 0
12.473879 1.831956 0.3267853 0
12.486345 1.8366318 0.51030803 0
12.484423 1.8361651 0.69423807 0
12.461241 1.8280997 0.87694502 0
12.48721 1.8376049 1.0640187 0
12.463362 1.8293018 1.2471566 0
12.467025 1.8308368 1.4352858 0
12.467339 1.8311766 1.625224 0
12.463258 1.8299482 1.8168271 0
12.453966 1.8268594 2.009872 0
12.22439 1.8187727 0.1603936 0
12.252167 1.8293946 0.33494395 0
12.260521 1.8327631 0.51118183 0
12.245962 1.8275712 0.68724948 0
12.255905 1.8315347 0.86432087 0
12.240108 1.8258797 1.0401893 0
12.229154 1.822035 1.2168236 0
12.23112 1.8230221 1.3966966 0
12.239117 1.8262672 1.5802307 0
12.235107 1.8250273 1.7639217 0
12.231081 1.8237851 1.9504766 0
2.5534048 1.5687165 0.20414463 0
2.5521464 1.567808 0.38581091 0
2.5442853 1.5688981 0.56722504 0
2.5351896 1.5703568 0.74932086 0
2.54423 1.5663334 0.931135 0
2.5472269 1.5641305 1.1139376 0
2.5336037 1.5669266 1.3004761 0
2.532804 1.5658418 1.487462 0
2.5223875 1.5676321 1.6790839 0
2.5264931 1.5650327 1.8705155 0
2.3069754 1.5621237 0.18872496 0
2.3034153 1.5618352 0.37852773 0
2.3048568 1.5601138 0.56815177 0
2.2924356 1.5623646 0.75832331 0
2.2868924 1.5626366 0.94937575 0
2.3033113 1.5566171 1.1392803 0
2.2882938 1.5595795 1.3342505 0
2.2925358 1.5570219 1.52864 0
2.2912292 1.5560319 1.7264545 0
2.2799978 1.5578492 1.9300296 0
2.0403028 1.554057 0.17198831 0
2.024385 1.5570471 0.37033379 0
2.0293698 1.5543607 0.56927425 0
2.0320911 1.5522896 0.76801181 0
2.0208049 1.5540104 0.96820426 0
2.0205436 1.5527352 1.1689861 0
2.0052924 1.5555024 1.3736099 0
2.0176916 1.5507791 1.5761932 0
2.0111651 1.5511522 1.7847433 0
2.0160604 1.548421 1.9939294 0
2.6837296 1.3061299 0.039587915 0
1.7276821 1.5502298 0.15224275 0
1.7201071 1.5508076 0.36137849 0
1.7277641 1.5474848 0.57051986 0
1.7300162 1.545548 0.77940345 0
1.7153921 1.5479213 0.99002475 0
1.7190433 1.5456145 1.200702 0
1.7094502 1.5466774 1.4147403 0
1.7246275 1.5414084 1.626986 0
1.7144442 1.5425866 1.8465595 0
1.6940818 1.546327 2.072916 0
2.6546211 1.2395037 0.037935466 0
1.4048696 1.5399669 0.13184944 0
1.4017987 1.5393151 0.35199347 0
1.4011955 1.5380706 0.57187587 0
1.4154978 1.5332386 0.79124361 0
1.3885827 1.538318 1.0134078 0
1.3878579 1.5370878 1.2356745 0
1.4095864 1.5304589 1.456316 0
1.3826685 1.5354866 1.6867678 0
1.3914871 1.5319254 1.914055 0
1.3781347 1.5336505 2.1500092 0
2.639204 1.169405 0.037590921 0
1.0476403 1.5283443 0.10921288 0
1.0403476 1.5285678 0.34131053 0
1.0487204 1.5252546 0.57334328 0
1.0244918 1.5292978 0.80621552 0
1.0408521 1.5241805 1.0383112 0
1.0242925 1.5264734 1.2741921 0
1.020113 1.5259637 1.5112178 0
1.0279193 1.522745 1.748719 0
1.0254641 1.5218141 1.9909804 0
1.0091467 1.5239671 2.2407556 0
2.6312428 1.0977421 0.037912428 0
0.63084412 1.5191765 0.082688212 0
0.64691877 1.5143198 0.32965904 0
0.61627102 1.5193214 0.5752399 0
0.62795734 1.5153954 0.82132429 0
0.62282038 1.5150089 1.0685568 0
0.62429523 1.5132234 1.3166975 0
0.61099768 1.5145282 1.5688534 0
0.61886311 1.5113741 1.820591 0
0.60473204 1.5128121 2.0798821 0
0.6045599 1.5112996 2.3405116 0
2.6156778 1.0277783 0.037371457 0
-0.66983509 1.6716486 -0.0016053915 0
-17.071312 4.8858924 -0.19689184 0
-0.69991875 1.5555643 -0.0027886629 0
-17.162607 4.5377874 -0.19962645 0
2.5928564 0.88627672 0.036860198 0
-0.71648312 1.436968 -0.0031787753 0
-17.21188 4.1818786 -0.20120174 0
-0.72647476 1.3174635 -0.003231287 0
-17.263186 3.8265634 -0.20292723 0
-0.73945141 1.198602 -0.0035687089 0
-17.316179 3.4715538 -0.20479256 0
2.5600138 0.6738593 0.035558999 0
-0.74061871 1.0783851 -0.003228426 0
-17.362284 3.1155756 -0.20654261 0
-0.76096344 0.96063358 -0.0042248964 0
-17.403305 2.7589772 -0.20823121 0
2.5477262 0.53107136 0.035207272 0
-0.78154564 0.84268653 -0.0053258538 0
-17.453966 2.4032109 -0.21029687 0
2.542253 0.45966238 0.034963667 0
-0.80145931 0.72441369 -0.0064726472 0
-17.472309 2.0443859 -0.21148914 0
-0.8103075 0.60511982 -0.0069906712 0
-17.501362 1.6865433 -0.2130903 0
2.5250225 0.31715029 0.033578098 0
-0.80986404 0.48532367 -0.0069952607 0
-17.516914 1.3278517 -0.21437812 0
2.53021 0.24519098 0.034132421 0
-0.82104969 0.3661353 -0.0078446269 0
-17.542542 0.96959621 -0.21605694 0
-0.82042694 0.24649079 -0.0080169439 0
-17.541349 0.61039186 -0.21702278 0
3.6611376 -0.8402704 0.052916437 0
0.3937254 -1.4598113 0.014795721 0
-15.936664 -4.5562367 -0.18127578 0
3.6794152 -0.90966707 0.053189963 0
0.40516663 -1.579188 0.013740301 0
-15.86748 -4.906631 -0.1821478 0
0.42620087 -1.6968331 0.01322192 0
-15.79173 -5.2556553 -0.18291229 0
0.47487926 -1.8081362 0.014440358 0
-15.717507 -5.605062 -0.18381232 0
0.47952175 -1.9297789 0.012655735 0
-15.634738 -5.9525571 -0.18454403 0
3.744668 -1.1884502 0.052597642 0
0.51556206 -2.0438466 0.012862206 0
-15.562745 -6.3030205 -0.18569475 0
3.7634044 -1.2575454 0.052473813 0
0.5499115 -2.1582208 0.012868822 0
-15.445907 -6.6415153 -0.18556643 0
0.57643604 -2.2748423 0.012260795 0
-15.35399 -6.9867496 -0.18628865 0
3.804307 -1.3947525 0.052312493 0
0.62214613 -2.3857203 0.012855053 0
-15.24602 -7.3272777 -0.18660635 0
3.8209395 -1.4646291 0.051696032 0
0.66465807 -2.4973223 0.013149142 0
-15.150283 -7.6717539 -0.18739313 0
3.8494883 -1.5305974 0.052239805 0
0.69218349 -2.6138928 0.012334704 0
-15.03807 -8.0110645 -0.1877591 0
0.72530651 -2.7288127 0.011806726 0
-14.911815 -8.3454523 -0.18777448 0
0.76396227 -2.8418896 0.011565506 0
-14.790429 -8.6814928 -0.18803114 0
3.9179025 -1.7343475 0.051518321 0
0.80482864 -2.95421 0.011385322 0
-14.65735 -9.0130882 -0.188007 0
3.9503407 -1.7985065 0.052129567 0
0.87497473 -3.0546615 0.013155818 0
-14.524655 -9.3447504 -0.18808347 0
0.90457582 -3.1715169 0.012012064 0
-14.409564 -9.6839781 -0.18881607 0
0.94900846 -3.2823906 0.011811554 0
-14.262401 -10.009861 -0.18861008 0
4.033185 -1.9966716 0.051874131 0
1.0047703 -3.3881919 0.012322843 0
-14.101169 -10.329191 -0.18803436 0
4.0665274 -2.0601089 0.05223757 0
1.0443673 -3.501497 0.011593878 0
-13.96392 -10.659544 -0.1883288 0
4.0864415 -2.1301003 0.051021367 0
1.0999255 -3.6073234 0.01191324 0
-13.803462 -10.979002 -0.18795425 0
4.1261854 -2.1903501 0.051918179 0
1.1527433 -3.7144618 0.011946857 0
-13.652673 -11.303345 -0.18798918 0
4.1573701 -2.2548888 0.051770627 0
1.2119026 -3.8182943 0.012352407 0
-13.488809 -11.621194 -0.18768185 0
4.1893473 -2.3190804 0.051619321 0
1.2806249 -3.9167566 0.01337564 0
-13.312644 -11.932425 -0.18705124 0
1.3264933 -4.0277805 0.012626827 0
-13.140599 -12.245847 -0.18664795 0
1.3935256 -4.126873 0.013355553 0
-12.954902 -12.551424 -0.1858694 0
1.4518776 -4.2309761 0.013348341 0
-12.778026 -12.862172 -0.18548173 0
1.5045586 -4.3387699 0.012816131 0
-12.592357 -13.167748 -0.18488264 0
1.5768867 -4.4342895 0.013686717 0
-12.40274 -13.470937 -0.18423706 0
1.6380363 -4.5369596 0.013613105 0
-12.190858 -13.759459 -0.18289727 0
4.4572148 -2.7429225 0.053116024 0
1.7075262 -4.6341047 0.014093816 0
-11.999042 -14.061221 -0.1823532 0
4.4882269 -2.8087218 0.052080572 0
1.7757483 -4.7320714 0.014387667 0
-11.814487 -14.368585 -0.18216592 0
4.5392833 -2.8603182 0.053398013 0
1.8493257 -4.826159 0.015016854 0
-11.599786 -14.654886 -0.1809898 0
4.583456 -2.9167142 0.053791225 0
1.9058127 -4.932981 0.014187574 0
-11.379304 -14.936672 -0.17968923 0
1.9854474 -5.0225348 0.015123367 0
-11.160718 -15.219687 -0.17854428 0
2.0696669 -5.1081314 0.016356587 0
-10.942277 -15.50285 -0.1774947 0
4.7167082 -3.0851483 0.05453518 0
2.1265669 -5.2157497 0.015250742 0
0.59894943 -6.4711804 0.24989018 0
0.59946489 -6.4691348 0.61047089 0
0.59032726 -6.4750295 0.97158939 0
2.2232575 -5.2905746 0.01735884 0
0.84091806 -6.4599948 0.25601727 0
0.83710575 -6.4615355 0.60989422 0
0.83065414 -6.4653096 0.96433055 0
2.2905612 -5.3900614 0.016920567 0
1.067842 -6.4546366 0.26164624 0
1.0612397 -6.4586368 0.60941362 0
1.0554771 -6.4619036 0.95781094 0
4.8531723 -3.2511742 0.054869652 0
2.377779 -5.4722366 0.018080831 0
1.2886486 -6.4480529 0.26711047 0
1.2795405 -6.4544024 0.60897118 0
1.2874265 -6.4455061 0.95081055 0
2.4567127 -5.5616736 0.018446982 0
1.4983125 -6.4451814 0.2722095 0
1.4883461 -6.4524941 0.6085971 0
1.4987845 -6.4409652 0.94484681 0
4.954361 -3.3526931 0.056003124 0
2.5401397 -5.646944 0.019114852 0
1.6153107 -6.5242252 0.27369338 0
1.5901971 -6.546102 0.60911518 0
1.5968204 -6.5378194 0.94520783 0
5.0020885 -3.406136 0.056046546 0
2.6145577 -5.7409611 0.018892705 0
1.6049366 -6.7266321 0.27004224 0
1.6005011 -6.7288494 0.6104551 0
1.593987 -6.7330937 0.95146394 0
5.0494342 -3.4600954 0.055938035 0
2.6926966 -5.8317409 0.018896103 0
1.6037908 -6.9258022 0.26662928 0
1.6128821 -6.9143929 0.61184818 0
1.6136055 -6.911407 0.95669317 0
5.1039867 -3.5067878 0.056750834 0
2.7808361 -5.9125443 0.019709349 0
1.616344 -7.1166382 0.26364523 0
1.6187649 -7.1117282 0.61337441 0
1.6118379 -7.1164932 0.96344805 0
5.1551065 -3.556962 0.056990802 0
2.8713479 -5.9906878 0.020658731 0
1.6275382 -7.3143044 0.26047572 0
1.6161222 -7.3239112 0.61506104 0
1.6209974 -7.3161578 0.96985608 0
6.520359 -4.4644451 0.068344057 0
6.4665461 -4.5801468 0.23602706 0
6.4618487 -4.5869541 0.4150331 0
6.4657321 -4.5747747 0.59409946 0
6.4618835 -4.5797 0.7732023 0
6.465178 -4.5688319 0.9519136 0
6.4531207 -4.5918393 1.1350503 0
6.4527864 -4.5889287 1.31722 0
6.4453354 -4.6016669 1.5043056 0
6.4450974 -4.5984521 1.69098 0
6.4493046 -4.5854058 1.8775768 0
6.5841208 -4.4972882 0.06853655 0
6.4688082 -4.7591453 0.22667766 0
6.4644885 -4.7651968 0.41139796 0
6.4684844 -4.7521281 0.59610659 0
6.4646645 -4.757031 0.78083342 0
6.4631228 -4.7566833 0.96609467 0
6.4621086 -4.7551041 1.1522446 0
6.4622345 -4.7508836 1.3393781 0
6.4488564 -4.7775517 1.5344455 0
6.4474888 -4.7766409 1.7274809 0
6.4503241 -4.7660584 1.9207809 0
6.6511126 -4.5227351 0.069416851 0
6.4757624 -4.9390383 0.2173748 0
6.4770331 -4.9317904 0.40816492 0
6.4717607 -4.9402137 0.59825617 0
6.4742899 -4.9299722 0.78826451 0
6.4697313 -4.9366617 0.97957087 0
6.4579973 -4.9604378 1.1746008 0
6.455862 -4.9612513 1.3693242 0
6.4569702 -4.9542933 1.5646408 0
6.4580927 -4.9472575 1.7620051 0
6.4475698 -4.9678555 1.9697196 0
6.7168455 -4.5511494 0.069897205 0
6.4769249 -5.1459651 0.20639625 0
6.4757452 -5.1443329 0.40370825 0
6.4782257 -5.1335936 0.60049975 0
6.4702153 -5.1489844 0.79788804 0
6.4733305 -5.1366606 0.99473351 0
6.4659123 -5.1505108 1.1950045 0
6.4696622 -5.1365662 1.3934908 0
6.4629278 -5.1486073 1.5982547 0
6.4538121 -5.1664677 1.8080466 0
6.4597282 -5.146996 2.0121047 0
6.7836237 -4.5769906 0.070554852 0
6.4865417 -5.3461843 0.19597474 0
6.4822655 -5.3523436 0.39946419 0
6.4785614 -5.3570108 0.60308015 0
6.4773016 -5.3553195 0.80692244 0
6.4705758 -5.3677945 1.012513 0
6.4708757 -5.3620095 1.2179906 0
6.4669843 -5.3670459 1.4264665 0
6.466629 -5.3628707 1.6357305 0
6.459928 -5.3750377 1.8513534 0
6.4637384 -5.3599572 2.0637527 0
6.8497186 -4.6047082 0.070931315 0
6.4907236 -5.5764031 0.18371814 0
6.4848428 -5.5869589 0.39457178 0
6.4825578 -5.5877442 0.60578418 0
6.4853811 -5.5746737 0.81658733 0
6.4770732 -5.5917621 1.0296592 0
6.4758444 -5.5896273 1.2428931 0
6.4785829 -5.5767269 1.4560068 0
6.4762602 -5.5774627 1.6731498 0
6.4720898 -5.5831094 1.8943994 0
6.4647617 -5.5971661 2.1219106 0
6.918519 -4.6249971 0.071975589 0
6.4917655 -5.8340807 0.16982427 0
6.4930239 -5.8245606 0.38969123 0
6.4941463 -5.8154578 0.60851371 0
6.4873066 -5.8289423 0.82791197 0
6.4889345 -5.8183966 1.0470178 0
6.4832497 -5.8285317 1.2691178 0
6.4782124 -5.8367648 1.4935026 0
6.4784007 -5.8301592 1.7179887 0
6.4705806 -5.8460817 1.9502816 0
6.4688735 -5.8446436 2.1826777 0
6.5056195 -6.0754261 0.15711397 0
6.4989204 -6.088871 0.38418397 0
6.4971967 -6.0874991 0.61174101 0
6.4959145 -6.0848155 0.83933413 0
6.4875312 -6.1031861 1.0692487 0
6.4911261 -6.0859709 1.2975438 0
6.4887114 -6.0865388 1.5292685 0
6.4822788 -6.098917 1.7658496 0
6.4810772 -6.0957232 2.00284 0
6.4773521 -6.0998764 2.2453699 0
6.5090475 -6.370482 0.14112058 0
6.509202 -6.3628278 0.37852177 0
6.5035982 -6.3731742 0.61517191 0
6.4988394 -6.3808589 0.8526637 0
6.4985332 -6.3746352 1.0903466 0
6.4924474 -6.3863649 1.3311098 0
6.4917812 -6.3811655 1.5720527 0
6.4899721 -6.3794489 1.8158877 0
6.4840498 -6.3903899 2.0658002 0
6.4817061 -6.3901072 2.3174314 0
7.1203184 -4.699244 0.07321623 0
6.520071 -6.6681151 0.12511992 0
6.5157833 -6.6742921 0.37197417 0
6.5131912 -6.6749001 0.61883712 0
6.5082226 -6.683291 0.86632389 0
6.5076904 -6.6771102 1.1140325 0
6.5029144 -6.6847768 1.3643844 0
6.5039148 -6.6734934 1.6143854 0
6.4989176 -6.681716 1.8700511 0
6.4933519 -6.6916628 2.1301258 0
6.4872785 -6.7031097 2.3954723 0
6.5266857 -7.0101228 0.10649195 0
6.5240345 -7.0105162 0.36489838 0
6.5186348 -7.0204258 0.62302768 0
6.5185418 -7.0119734 0.88124847 0
6.5119739 -7.0258493 1.1415672 0
6.5103359 -7.022656 1.4023583 0
6.5051837 -7.0314894 1.6669567 0
6.4994478 -7.042212 1.9354174 0
6.5003972 -7.029839 2.2028759 0
6.4947743 -7.0398836 2.479743 0
6.5376959 -7.3715596 0.086827576 0
6.5341487 -7.3747478 0.35722452 0
6.5291367 -7.3832922 0.62748605 0
6.5266409 -7.3826241 0.89817512 0
6.5208716 -7.3938556 1.1707021 0
6.5167351 -7.3990598 1.444901 0
6.5148091 -7.396132 1.7204733 0
6.5143156 -7.3879085 1.9977756 0
6.5072441 -7.4034162 2.2836587 0
7.3258739 -4.763133 0.07470274 0
6.5425129 -7.7967138 0.063402593 0
6.5438318 -7.7806005 0.3486194 0
6.5344725 -7.8058791 0.63266277 0
6.5383921 -7.7797527 0.91638887 0
6.5342865 -7.7846365 1.2017362 0
6.5266438 -7.8030787 1.4907029 0
6.5239697 -7.8022542 1.7803912 0
6.5208187 -7.803144 2.0734711 0
6.5226135 -7.7849026 2.366106 0
6.6054688 -8.0319424 0.051838845 0
6.5501118 -8.2478561 0.33860546 0
6.5478792 -8.2446728 0.63812137 0
6.5492468 -8.2266998 0.93698472 0
6.5444546 -8.2340002 1.2376351 0
6.5395174 -8.2418013 1.5406113 0
6.5343952 -8.2502317 1.8467529 0
6.5314541 -8.2495995 2.1550581 0
6.5266581 -8.256362 2.4691222 0
7.4682922 -4.7840681 0.0773606 0
6.7221785 -8.0583248 0.053075969 0
6.6599374 -8.3187065 0.33873573 0
6.6575875 -8.3156652 0.63978142 0
6.6519408 -8.3270531 0.94154561 0
6.6495056 -8.3243246 1.2439675 0
6.6461325 -8.3256197 1.5484209 0
6.6403642 -8.3372355 1.8570848 0
6.6350708 -8.3466053 2.1694803 0
6.6367321 -8.3255568 2.4797373 0
7.5373397 -4.8035083 0.077680439 0
6.8413372 -8.0731449 0.054924697 0
6.7850189 -8.3239746 0.34048975 0
6.7791119 -8.3373537 0.64095128 0
6.7780566 -8.3279362 0.94157434 0
6.7758341 -8.323966 1.2429731 0
6.7722268 -8.3263912 1.5465891 0
6.7675686 -8.3335886 1.8536279 0
6.7653999 -8.3290195 2.1622396 0
6.7604065 -8.3373938 2.477592 0
6.9572887 -8.1026945 0.0557881 0
6.9146185 -8.303318 0.34284469 0
6.9074345 -8.3241234 0.64177132 0
6.9066238 -8.3127317 0.94094723 0
6.901145 -8.3248043 1.2422366 0
6.8985577 -8.3222322 1.5444016 0
6.895154 -8.3236265 1.8494942 0
6.8923163 -8.3220186 2.1574011 0
6.8889117 -8.3230381 2.4698923 0
7.6759353 -4.8420372 0.078096896 0
7.0738187 -8.1301088 0.05669415 0
7.037919 -8.309866 0.34448332 0
7.0335026 -8.3171768 0.64268243 0
7.0301619 -8.3185873 0.94139051 0
7.0286484 -8.3100061 1.2403731 0
7.0239534 -8.318614 1.5425041 0
7.021873 -8.3129005 1.8455403 0
7.0172386 -8.3208199 2.1540341 0
7.015563 -8.3125324 2.4635119 0
7.1939459 -8.1371241 0.058732599 0
7.1632376 -8.3016968 0.34644222 0
7.1566105 -8.3227015 0.64375591 0
7.1543884 -8.317523 0.94160265 0
7.1528025 -8.3085489 1.2397628 0
7.1472378 -8.3229599 1.5417683 0
7.145278 -8.3159513 1.8440001 0
7.1428823 -8.3113346 2.1494458 0
7.1371412 -8.3260784 2.4630303 0
7.8198347 -4.8507695 0.081003577 0
7.3092041 -8.1734762 0.058929682 0
7.282073 -8.3303156 0.34747303 0
7.2833252 -8.3019657 0.64456117 0
7.2776933 -8.3183622 0.94199336 0
7.2750006 -8.3156042 1.2400055 0
7.2727284 -8.3100281 1.5392168 0
7.270061 -8.3068619 1.8408778 0
7.2661538 -8.3114471 2.1470389 0
7.2626176 -8.313364 2.4569983 0
7.4306393 -8.1690855 0.061458379 0
7.4114137 -8.2854195 0.35023311 0
7.4075456 -8.2908821 0.64549661 0
7.4010754 -8.3149338 0.94227457 0
7.3974576 -8.3184061 1.2400525 0
7.3945899 -8.3163853 1.5391549 0
7.3925629 -8.3082209 1.8396451 0
7.3885822 -8.3136969 2.145385 0
7.3854885 -8.3125753 2.4540915 0
7.9597096 -4.8859196 0.081041545 0
7.5476942 -8.1951351 0.062092841 0
7.5303402 -8.3098469 0.35129654 0
7.5301213 -8.2864933 0.64653218 0
7.5241108 -8.3095646 0.942554 0
7.5184393 -8.3297138 1.2409495 0
7.5196724 -8.2947168 1.5360131 0
7.5146503 -8.3092928 1.8386481 0
7.5103903 -8.3174839 2.144367 0
7.506423 -8.3229876 2.4541302 0
8.032753 -4.8783784 0.083294511 0
7.6658678 -8.2139606 0.063067138 0
7.6544256 -8.2898006 0.35337827 0
7.6497135 -8.304081 0.64784837 0
7.6460242 -8.3089895 0.94314569 0
7.6427627 -8.3099184 1.2394466 0
7.6413021 -8.2944965 1.5356082 0
7.6369324 -8.3049831 1.8371038 0
7.6317911 -8.3219776 2.1438234 0
7.6316738 -8.2938061 2.4456205 0
7.7844524 -8.2302217 0.064104408 0
7.7745728 -8.3009529 0.35469007 0
7.7726412 -8.2881422 0.64880162 0
7.7670956 -8.3130074 0.94404113 0
7.7646799 -8.3051291 1.239325 0
7.763361 -8.2857962 1.53442 0
7.7576699 -8.3113136 1.8374662 0
7.7552962 -8.3022842 2.13904 0
7.749784 -8.3249121 2.451144 0
7.9042935 -8.2326469 0.065859437 0
7.8957367 -8.299428 0.35626474 0
7.8920703 -8.3054934 0.65017354 0
7.8901968 -8.2895174 0.94373417 0
7.8856039 -8.306695 1.2398753 0
7.8824615 -8.3059044 1.5368285 0
7.8793049 -8.3049669 1.8361609 0
7.8768291 -8.2954369 2.1370289 0
7.8727469 -8.304698 2.4454749 0
8.0232735 -8.2449398 0.066949457 0
8.0173559 -8.2861853 0.35807407 0
8.0137701 -8.2921867 0.65120852 0
8.0110044 -8.2858725 0.94444466 0
8.0076008 -8.2889166 1.2389853 0
8.0037794 -8.2977772 1.5361304 0
8.0010948 -8.2895527 1.8337405 0
7.9968181 -8.3040342 2.1382763 0
7.9944677 -8.2899008 2.441432 0
8.1428576 -8.2479925 0.06848532 0
8.138031 -8.2793369 0.35970026 0
8.1341562 -8.2921953 0.6524297 0
8.1309185 -8.2927628 0.94573963 0
8.1279392 -8.2882919 1.2396532 0
8.1248055 -8.286417 1.535262 0
8.1210489 -8.295578 1.8348761 0
8.1169739 -8.3098021 2.1393225 0
8.1151714 -8.2816133 2.4392571 0
8.2625027 -8.2469864 0.070163935 0
8.2578449 -8.2852831 0.36100277 0
8.2551565 -8.2713842 0.65342224 0
8.2512112 -8.290267 0.9466809 0
8.2480965 -8.2872019 1.2404318 0
8.2446585 -8.2919092 1.536585 0
8.2418661 -8.2796326 1.8329167 0
8.2384167 -8.2830553 2.1345513 0
8.2349596 -8.285533 2.4402328 0
8.3817358 -8.256979 0.071119636 0
8.3775883 -8.2959757 0.36216936 0
8.3747921 -8.277318 0.65477097 0
8.3716059 -8.2752085 0.94711435 0
8.3678274 -8.2967682 1.2422384 0
8.3644304 -8.3016615 1.5386206 0
8.3617887 -8.275651 1.83306 0
8.3582134 -8.2851706 2.1355731 0
8.3545799 -8.2949419 2.442843 0
8.5325508 -4.9187212 0.08776921 0
8.5011978 -8.2642975 0.072141111 0
8.4977531 -8.2851562 0.3637875 0
8.4945116 -8.2836065 0.65615511 0
8.4912348 -8.2854462 0.94883627 0
8.48804 -8.2781229 1.2418653 0
8.484725 -8.2808046 1.5372596 0
8.4814205 -8.2799129 1.8347385 0
8.4780474 -8.2819386 2.1359148 0
8.4743853 -8.3043289 2.4458449 0
8.6042538 -4.9161654 0.088820875 0
8.6207628 -8.2580204 0.07385084 0
8.6175642 -8.2718372 0.36542702 0
8.6142931 -8.271739 0.65733838 0
8.6110458 -8.2777767 0.94979584 0
8.60777 -8.2805691 1.2433827 0
